ncols         601
nrows         38
xllcorner     346996.826385
yllcorner     6594326.06784
cellsize      17.126678591672
NODATA_value  -9999
765 770 776 781 787 794 799 804 808 814 824 831 834 839 841 841 842 843 844 842 840 838 836 833 832 831 829 828 825 823 821 817 821 826 828 831 831 833 836 839 843 846 849 852 855 858 860 862 862 858 856 854 853 853 851 851 852 855 860 865 869 872 874 872 873 873 873 875 876 877 879 882 887 891 895 899 903 907 910 913 916 920 925 930 935 939 945 951 956 962 966 966 966 966 965 963 960 957 954 950 946 942 938 934 936 937 938 939 940 941 942 943 943 942 940 938 936 934 934 934 933 932 931 930 930 929 928 928 929 930 930 931 933 934 936 938 936 927 919 910 905 899 893 886 877 870 861 854 846 837 831 826 821 816 813 809 806 802 797 794 793 790 790 790 789 787 785 783 781 778 776 774 772 769 767 765 763 762 762 760 759 756 755 754 751 749 747 744 742 739 737 736 734 731 729 726 724 721 719 718 716 714 712 708 706 702 699 695 689 685 680 676 670 666 660 654 648 643 637 633 632 629 628 628 628 629 630 631 632 632 633 633 633 633 633 633 633 632 633 637 641 643 647 653 658 664 670 675 679 685 692 698 699 700 700 701 702 702 703 703 704 704 703 703 702 702 702 702 703 703 703 703 704 704 705 707 708 709 711 713 715 717 719 721 722 726 729 731 734 735 737 739 741 742 745 748 750 752 759 767 775 780 786 790 796 797 797 796 794 792 790 789 790 791 792 792 794 797 801 803 803 807 811 814 817 819 823 828 833 839 844 847 850 852 855 855 853 847 843 839 834 833 832 830 826 825 825 825 827 830 834 837 840 844 847 851 854 857 860 864 870 875 881 886 889 891 893 895 897 899 901 903 906 908 909 910 911 913 912 912 912 912 913 916 917 920 921 921 921 920 919 919 916 913 909 905 902 902 903 903 903 899 900 903 908 911 914 917 920 923 926 931 936 940 945 949 952 956 959 965 972 979 986 992 993 995 996 998 1003 1004 1007 1008 1010 1011 1011 1012 1011 1011 1014 1017 1021 1024 1026 1023 1018 1012 1005 998 991 983 974 966 962 960 957 955 952 950 948 947 944 939 939 935 935 936 934 929 925 920 916 911 904 897 891 883 877 872 867 863 858 853 847 844 842 840 840 838 836 835 829 828 829 829 830 826 821 819 822 827 830 834 837 842 845 849 852 856 860 863 867 873 878 885 889 895 902 909 919 929 939 947 957 965 972 981 989 997 1006 1018 1028 1037 1042 1043 1040 1035 1031 1027 1021 1014 1007 1000 993 987 980 974 968 964 973 981 990 999 1006 1010 1014 1018 1023 1028 1031 1034 1037 1040 1045 1049 1054 1061 1067 1065 1065 1065 1065 1063 1061 1059 1057 1054 1051 1047 1043 1039 1037 1037 1036 1036 1035 1031 1029 1026 1024 1021 1019 1016 1012 1010 1008 1005 1002 999 995 995 994
772 777 782 790 797 805 810 817 823 828 834 838 840 844 847 847 848 847 847 846 843 841 839 837 836 834 832 830 828 825 823 819 825 830 832 835 835 837 839 843 846 849 852 856 853 850 851 855 856 855 854 852 850 850 848 847 847 850 855 859 864 869 869 868 868 868 869 871 871 872 873 877 882 888 892 897 901 904 907 910 913 918 923 928 933 939 945 950 955 961 962 961 961 960 960 957 954 951 949 947 943 940 936 933 933 934 935 935 936 937 938 938 940 939 937 936 934 932 931 931 930 928 928 928 928 927 927 927 927 928 929 930 931 933 934 936 933 924 919 913 905 898 890 882 874 865 858 849 841 835 830 825 820 816 813 809 806 802 798 794 792 789 788 789 787 786 784 781 780 777 775 772 770 768 765 764 762 760 760 759 756 754 753 751 749 747 744 742 740 738 735 731 729 726 724 721 718 716 714 713 711 710 708 705 703 700 696 691 687 683 678 674 669 664 659 653 647 642 636 633 632 629 627 628 628 629 630 631 631 632 632 633 633 633 632 632 632 631 634 638 642 646 649 655 661 667 673 678 684 692 699 705 706 706 708 709 710 711 712 713 713 713 712 712 710 709 708 707 707 707 707 707 708 709 709 711 712 714 718 720 722 723 725 726 728 730 733 735 737 739 741 742 744 746 749 752 755 756 764 769 776 781 787 791 797 802 802 800 799 798 796 795 796 797 797 798 799 801 804 807 807 811 815 818 822 825 829 835 839 844 849 852 855 858 863 864 860 855 850 846 841 840 837 834 831 829 829 830 832 835 838 841 845 848 852 855 857 860 863 866 872 878 883 889 894 897 901 903 906 908 911 913 916 917 918 919 920 920 922 923 923 923 924 926 928 929 931 931 929 929 929 927 924 920 915 910 907 908 908 908 908 905 904 907 911 914 917 921 923 926 930 935 939 944 948 952 956 959 963 967 974 981 989 995 997 997 997 998 1002 1004 1006 1008 1010 1011 1011 1010 1010 1010 1013 1016 1019 1021 1022 1019 1015 1010 1005 998 989 980 972 964 961 958 955 952 950 948 946 944 941 936 936 931 930 929 928 923 919 915 911 906 899 893 886 879 874 869 865 860 855 849 846 843 840 837 836 835 834 832 828 827 827 827 827 823 819 821 825 830 833 837 842 847 851 853 856 860 864 868 875 882 888 894 897 900 906 917 927 938 947 958 967 976 984 993 1001 1008 1016 1026 1037 1047 1051 1052 1048 1044 1040 1036 1030 1023 1016 1008 1001 994 988 982 977 970 977 986 994 1004 1011 1015 1019 1025 1031 1035 1038 1041 1045 1048 1052 1056 1059 1065 1069 1069 1069 1069 1068 1067 1064 1062 1060 1058 1054 1050 1047 1043 1041 1041 1040 1040 1039 1036 1032 1030 1027 1023 1021 1018 1014 1011 1008 1005 1003 1000 998 997 996
779 786 792 800 807 815 821 827 831 835 838 842 846 850 853 852 853 851 850 848 846 844 843 840 839 836 835 832 830 828 825 822 828 833 837 838 838 841 843 846 849 852 855 854 847 840 839 843 845 845 846 846 845 845 844 843 843 846 851 855 859 863 863 864 864 864 864 865 866 867 868 872 877 882 888 893 897 900 904 907 911 916 921 926 932 938 944 949 954 957 956 955 955 955 954 951 949 947 946 942 939 935 933 930 930 930 931 931 932 933 934 934 936 935 934 932 931 930 929 927 927 926 926 925 925 925 926 926 926 927 927 927 930 931 933 935 931 922 914 908 901 894 886 877 871 863 855 848 841 836 831 825 821 818 814 809 806 802 799 796 792 788 785 787 786 784 782 780 778 776 773 770 768 766 764 764 762 760 760 758 755 752 750 748 745 744 742 740 737 735 731 727 726 722 719 717 713 711 709 708 706 705 703 701 698 696 692 689 685 680 676 672 667 662 657 652 646 641 636 633 631 630 627 627 629 630 630 630 630 631 631 632 632 632 632 632 631 632 635 639 644 647 652 658 664 670 676 683 691 699 706 711 713 714 715 716 717 719 720 722 722 722 721 719 717 716 715 715 714 713 713 713 712 713 713 715 719 722 725 727 729 730 730 730 732 734 736 738 740 743 744 746 747 750 753 756 758 760 766 771 777 783 789 795 801 807 806 805 804 802 801 800 801 802 803 804 804 804 808 811 811 814 818 822 825 830 835 841 844 850 855 858 861 865 873 873 868 864 858 854 850 846 841 838 836 834 835 835 837 841 843 846 850 852 855 857 860 863 865 868 873 879 883 888 893 898 904 909 915 918 921 923 926 927 928 928 928 927 929 931 932 933 934 936 937 938 938 939 938 938 936 935 930 925 921 916 913 913 913 913 912 910 909 912 914 917 921 924 926 929 933 938 942 947 951 956 959 963 967 972 978 985 992 997 999 999 999 999 1002 1004 1006 1008 1009 1010 1010 1009 1009 1009 1012 1014 1015 1016 1018 1017 1012 1007 1003 995 987 978 970 963 959 956 954 951 949 946 944 942 939 934 934 929 925 923 921 917 914 910 907 903 895 888 882 876 871 866 862 857 852 848 844 842 838 834 832 832 830 828 825 825 825 824 824 820 819 823 828 833 836 842 848 854 857 860 863 867 872 880 885 892 898 903 906 910 914 925 935 946 956 966 977 987 995 1003 1012 1019 1027 1035 1045 1056 1059 1061 1057 1054 1049 1046 1040 1032 1025 1017 1010 1003 998 992 986 981 980 990 999 1008 1015 1021 1026 1032 1038 1042 1046 1049 1052 1055 1058 1062 1066 1070 1073 1073 1072 1072 1072 1070 1067 1066 1064 1062 1058 1054 1050 1047 1046 1045 1043 1044 1043 1039 1036 1032 1029 1026 1023 1019 1015 1010 1008 1005 1003 1000 999 998 997
785 794 803 812 818 824 829 833 835 837 840 845 850 855 857 856 855 854 853 851 849 847 845 843 841 839 837 835 833 831 828 825 832 837 841 845 845 848 850 851 853 855 855 849 841 832 828 830 831 831 832 835 837 838 838 839 839 842 846 850 854 858 858 858 858 859 860 860 861 861 862 867 872 877 883 889 893 896 900 903 908 914 920 926 932 938 943 946 950 952 951 951 950 950 948 947 945 943 941 938 935 931 928 926 925 926 926 927 928 929 930 931 932 931 930 929 927 927 926 924 924 923 923 923 923 923 924 924 924 925 926 929 929 930 931 933 928 918 911 905 899 894 886 877 871 863 857 851 844 840 835 831 826 821 815 811 807 803 800 797 793 788 785 783 784 782 780 778 776 774 772 769 766 764 763 763 762 760 760 758 754 751 748 744 740 739 738 738 734 729 725 723 721 718 715 713 709 707 705 704 702 700 699 696 694 693 690 687 683 678 674 669 665 659 654 650 645 641 635 633 630 629 626 628 630 630 630 630 630 631 631 632 632 632 631 631 631 634 637 642 646 650 656 662 667 673 679 688 697 705 713 718 719 720 722 723 725 726 727 729 730 728 727 726 725 723 723 722 720 719 718 718 718 717 719 722 725 729 731 735 735 736 735 734 736 737 739 742 744 746 748 750 751 754 757 759 761 763 768 774 780 786 791 796 802 808 811 809 808 806 805 805 806 807 808 809 809 808 811 815 815 818 822 825 830 837 841 846 851 856 860 865 870 875 880 881 876 871 867 863 859 854 849 845 842 839 839 840 842 846 849 852 855 856 857 860 863 866 867 869 874 878 883 888 893 898 905 912 919 923 927 931 935 936 936 935 935 934 936 937 940 942 944 945 945 946 947 947 947 945 942 940 936 931 926 920 919 917 917 917 917 915 912 915 917 920 923 927 930 933 937 942 946 950 955 959 963 967 972 977 983 989 995 1000 1000 1000 1000 1000 1002 1004 1006 1006 1007 1007 1007 1007 1007 1008 1009 1011 1013 1014 1016 1015 1010 1005 1000 992 985 976 968 960 957 955 952 949 947 944 941 940 937 931 931 927 923 920 917 913 909 906 902 898 891 885 879 872 868 863 859 854 849 846 842 840 836 832 830 828 826 824 822 822 822 821 820 817 821 825 831 836 842 848 855 860 863 866 872 878 883 890 896 902 908 913 919 923 926 935 943 954 963 974 987 995 1005 1013 1023 1030 1038 1045 1052 1062 1067 1070 1066 1063 1058 1054 1049 1041 1034 1026 1019 1013 1008 1002 997 991 986 995 1004 1013 1021 1027 1033 1039 1046 1050 1053 1056 1058 1062 1065 1069 1073 1075 1077 1078 1076 1076 1075 1073 1071 1070 1068 1065 1061 1058 1053 1051 1049 1049 1048 1046 1044 1041 1036 1034 1031 1028 1024 1019 1015 1010 1008 1005 1003 1001 1000 997 996
791 799 810 819 827 832 834 835 837 841 842 848 852 856 856 856 857 856 856 854 852 850 848 845 843 841 839 837 834 830 828 827 833 837 842 847 847 852 854 854 855 856 849 842 835 826 819 817 818 821 823 826 827 829 830 831 833 837 841 845 849 853 853 853 854 854 855 855 856 857 857 862 867 873 879 884 888 892 895 901 906 913 919 926 932 937 939 942 945 947 947 947 945 945 944 942 940 938 937 934 931 928 925 922 921 921 921 923 925 925 926 927 927 926 925 926 925 924 922 922 921 920 920 922 922 922 922 922 924 925 928 932 931 931 931 932 928 919 913 907 903 901 894 885 877 870 863 857 851 845 840 836 830 824 818 813 809 805 801 797 793 789 785 781 781 780 778 776 775 772 770 767 764 763 762 761 760 759 759 756 754 751 748 744 739 736 734 730 726 722 721 720 717 714 711 709 706 704 702 700 698 696 695 692 692 690 689 685 681 677 672 667 662 656 651 648 644 640 634 632 630 628 626 628 629 629 630 630 630 631 631 632 631 631 631 630 633 636 640 644 649 654 660 666 671 677 683 692 700 708 717 722 725 728 729 730 732 733 734 735 736 734 733 732 732 731 729 728 726 725 724 724 724 724 726 730 732 736 739 741 740 739 739 737 740 741 743 745 746 749 751 753 755 757 760 762 764 766 771 777 782 788 792 797 803 808 814 812 811 811 810 810 810 812 813 814 814 813 815 818 818 821 825 831 837 843 848 852 857 863 868 873 878 883 887 889 884 880 876 872 868 863 859 854 848 845 844 844 846 852 854 856 858 859 860 863 865 867 869 870 874 878 883 888 894 901 908 915 922 926 932 937 941 943 942 942 941 941 943 945 947 950 951 953 954 955 956 955 953 950 948 946 942 936 931 926 923 923 922 922 922 919 916 918 920 923 926 930 934 939 943 947 951 954 959 963 968 973 977 982 989 994 999 1002 1003 1003 1002 1002 1003 1003 1004 1005 1005 1006 1006 1005 1006 1005 1007 1008 1011 1013 1014 1013 1008 1003 997 990 982 974 966 958 955 952 950 948 945 942 939 936 934 929 929 925 922 918 914 909 906 902 898 894 888 882 876 869 865 860 855 850 846 843 840 837 834 830 827 825 824 823 820 819 818 817 816 818 824 830 836 842 848 855 861 867 871 876 882 888 894 900 906 912 918 924 930 936 940 946 952 961 970 983 996 1004 1014 1023 1033 1042 1049 1057 1062 1068 1075 1078 1075 1070 1068 1062 1058 1050 1044 1036 1028 1023 1016 1010 1005 999 993 1000 1009 1018 1028 1034 1040 1046 1053 1056 1059 1063 1065 1068 1071 1075 1076 1077 1081 1083 1083 1081 1081 1079 1076 1074 1072 1069 1065 1061 1057 1055 1054 1053 1051 1047 1044 1040 1036 1033 1031 1028 1023 1019 1015 1010 1007 1006 1004 1003 1001 999 996
800 801 808 820 829 833 837 838 841 845 846 850 853 855 855 856 856 858 859 856 854 852 851 848 845 844 841 838 835 829 826 828 828 832 835 839 839 843 847 849 849 848 841 835 827 819 811 808 808 811 814 817 819 819 822 823 827 832 836 840 844 848 848 848 849 850 851 851 852 852 854 858 864 869 874 880 884 889 893 899 904 911 917 923 928 931 934 938 941 943 942 942 941 940 939 937 936 934 932 930 927 925 922 919 915 915 918 919 921 921 922 923 923 923 923 923 922 921 920 919 918 918 918 920 920 920 921 921 925 928 932 935 934 934 934 934 932 930 924 919 915 908 900 891 884 876 870 863 857 850 844 839 833 827 821 816 812 807 802 798 794 789 785 781 778 778 776 774 772 769 768 764 763 761 760 759 758 756 756 755 752 749 747 743 740 736 733 728 723 719 718 716 713 711 708 705 703 701 699 697 695 694 692 691 690 688 687 683 678 675 671 666 659 653 649 645 641 638 633 631 629 628 626 627 628 629 630 630 630 631 631 631 630 630 630 631 635 638 642 648 653 660 664 670 675 681 687 695 703 711 719 725 728 732 734 737 739 739 741 741 742 740 740 739 739 739 736 734 732 730 729 730 732 732 734 736 740 744 746 746 745 743 742 741 743 744 745 747 749 752 753 756 758 760 763 765 767 770 774 780 784 788 793 799 804 809 814 817 816 815 815 815 816 817 818 820 819 817 818 822 822 826 831 838 843 849 855 859 865 871 877 882 886 890 894 898 894 889 886 882 877 872 867 862 856 853 851 851 850 855 857 859 860 861 863 866 867 869 872 874 876 879 882 888 895 904 912 919 925 930 934 940 944 946 946 948 948 948 950 953 955 958 960 961 962 963 964 961 959 956 954 952 947 942 937 932 929 929 928 927 925 923 921 922 924 926 929 935 940 945 949 953 957 961 966 970 974 977 982 987 992 996 1001 1004 1005 1005 1005 1005 1004 1003 1004 1004 1004 1004 1004 1003 1003 1002 1005 1006 1009 1010 1010 1009 1006 1000 994 987 980 971 964 957 953 951 948 945 942 940 937 934 931 927 927 924 920 915 912 906 902 897 894 889 884 878 872 866 861 857 852 847 843 839 837 834 831 827 824 823 823 822 819 817 816 814 816 823 830 836 842 848 855 862 868 875 881 886 892 898 904 911 916 921 926 933 938 945 951 959 964 968 978 993 1005 1014 1024 1034 1043 1053 1060 1068 1073 1078 1083 1086 1083 1079 1075 1070 1066 1058 1052 1044 1037 1031 1024 1017 1012 1006 1001 1006 1015 1025 1034 1040 1046 1052 1058 1061 1064 1068 1071 1075 1077 1078 1079 1080 1084 1086 1086 1085 1086 1084 1080 1077 1075 1071 1067 1063 1060 1058 1057 1055 1051 1047 1043 1039 1036 1032 1029 1026 1021 1017 1014 1010 1008 1007 1005 1004 1002 1000 997
807 809 812 820 825 830 835 837 842 845 846 850 852 855 855 856 857 860 862 859 857 854 852 850 847 846 843 840 836 831 827 819 819 823 827 831 831 834 838 840 840 839 834 827 819 812 805 800 801 803 806 808 810 811 815 818 822 827 831 835 841 843 844 845 845 846 846 847 848 849 851 855 860 866 870 875 880 886 892 897 902 908 914 917 920 924 928 931 935 938 937 936 936 935 934 931 930 927 926 924 922 920 918 915 910 911 914 916 917 918 918 919 920 920 920 919 919 918 918 916 915 916 917 918 918 919 921 924 928 931 936 938 937 937 938 938 936 934 930 927 923 916 907 898 890 883 876 869 862 854 848 841 836 829 823 819 814 810 805 800 795 789 784 780 777 774 773 770 769 767 764 763 762 759 759 758 756 754 754 752 750 747 745 743 740 737 734 729 725 721 717 713 711 708 705 702 699 698 696 694 693 692 691 689 688 687 685 681 677 673 669 664 657 651 646 643 639 636 633 630 629 628 626 626 628 628 629 630 630 630 630 630 629 629 630 634 637 640 646 651 657 663 668 674 680 684 690 699 706 713 721 727 730 735 738 743 745 745 747 747 748 747 747 749 749 749 746 743 740 737 737 738 739 739 741 744 747 751 754 753 751 749 747 746 747 748 750 751 752 754 756 759 762 764 766 768 770 772 776 780 785 789 794 800 805 810 815 820 825 822 821 820 821 822 823 824 824 822 822 825 825 831 837 843 849 855 861 867 873 880 885 891 895 899 903 906 905 900 896 891 887 880 875 869 864 861 859 856 854 858 860 861 863 864 866 868 870 873 876 877 879 881 883 887 895 905 914 923 928 933 938 943 947 949 949 951 952 954 957 961 964 966 967 969 970 970 971 969 966 963 961 957 951 947 943 937 935 934 933 930 927 926 925 926 927 931 935 941 947 951 955 959 963 967 972 976 980 984 988 992 995 999 1003 1007 1007 1007 1007 1007 1007 1006 1006 1004 1004 1002 1001 1001 1000 1000 1002 1004 1005 1006 1006 1004 1000 996 992 985 977 970 962 955 952 949 946 943 940 937 935 931 928 925 925 921 917 913 910 903 896 892 889 885 879 874 868 862 858 854 849 844 840 836 834 831 828 823 820 820 819 818 816 816 814 813 819 828 836 842 848 855 861 868 876 883 890 896 902 908 915 920 924 930 936 941 947 955 962 969 975 979 985 994 1007 1021 1034 1044 1054 1063 1071 1080 1084 1087 1090 1093 1090 1086 1083 1078 1073 1065 1059 1052 1045 1039 1032 1027 1021 1015 1011 1012 1022 1031 1040 1047 1052 1057 1063 1066 1068 1072 1076 1078 1079 1079 1081 1083 1086 1086 1087 1088 1088 1086 1082 1079 1076 1072 1069 1065 1063 1059 1056 1053 1050 1047 1043 1038 1035 1031 1028 1024 1020 1016 1013 1010 1008 1007 1005 1004 1002 999 997
813 814 816 819 821 826 831 835 839 841 843 847 851 854 854 857 860 863 865 861 858 854 852 849 848 846 844 841 837 829 822 812 810 814 818 820 820 824 826 827 828 828 826 819 811 805 798 794 794 796 798 799 802 805 809 813 817 821 826 832 837 837 838 840 840 842 843 844 845 846 848 853 857 861 865 869 875 882 888 894 900 903 907 909 912 916 919 924 927 929 930 930 931 930 929 927 924 921 919 918 916 914 914 911 906 908 910 912 913 914 915 917 917 917 917 917 916 916 914 914 913 914 915 917 921 923 926 929 932 936 939 940 941 941 942 942 940 938 935 933 928 921 912 905 896 889 882 873 865 857 851 844 838 831 826 821 817 812 807 802 797 791 786 781 778 775 773 770 768 766 763 763 761 759 757 755 754 751 751 749 747 746 744 742 740 737 734 731 726 723 718 714 710 706 702 699 696 695 694 692 691 690 689 688 686 685 683 679 675 672 667 662 655 649 644 642 639 635 632 631 629 628 627 626 627 628 629 629 629 629 629 629 628 629 632 635 638 643 648 654 660 665 671 677 683 688 693 701 708 716 724 730 733 739 744 749 752 752 752 753 755 756 757 759 759 758 755 752 749 745 745 746 746 747 748 751 754 757 761 760 759 757 754 751 753 755 757 758 757 757 760 763 766 767 769 772 773 775 778 783 786 790 795 801 806 811 817 823 828 828 826 826 827 827 828 829 830 828 827 829 829 836 842 848 854 860 867 874 881 888 894 900 903 907 912 915 914 909 904 899 893 888 882 877 871 867 865 862 859 861 862 864 866 868 870 872 874 877 879 880 882 885 888 888 893 902 913 922 930 936 941 946 950 952 953 955 957 960 963 967 971 973 975 976 977 977 979 976 974 971 968 961 955 951 948 943 940 937 934 931 929 928 930 932 933 937 941 947 953 957 962 966 970 974 978 982 986 991 995 998 1000 1004 1006 1009 1009 1009 1009 1009 1009 1008 1008 1005 1003 1002 1000 1000 999 998 999 1000 1001 1002 1002 999 998 992 989 982 974 967 960 953 950 947 943 941 938 935 932 928 924 921 921 918 915 911 907 900 894 887 884 880 873 868 863 858 853 849 845 840 836 833 831 828 825 820 816 816 814 813 812 813 813 815 823 832 839 848 855 861 868 876 884 892 898 904 912 920 927 932 936 941 945 952 959 966 973 981 986 991 995 1000 1013 1029 1043 1054 1064 1073 1081 1089 1092 1094 1096 1096 1095 1093 1090 1085 1080 1072 1067 1061 1054 1048 1041 1034 1029 1024 1021 1019 1028 1038 1045 1052 1057 1062 1068 1071 1072 1076 1079 1080 1080 1081 1083 1085 1085 1085 1087 1088 1088 1086 1082 1079 1077 1073 1070 1066 1061 1059 1055 1052 1048 1045 1041 1037 1034 1030 1026 1023 1020 1016 1013 1010 1008 1007 1005 1004 1002 998 996
815 817 818 816 817 822 826 830 834 836 840 843 848 850 853 855 858 860 861 858 854 851 848 846 845 844 843 841 835 827 817 808 802 804 807 809 809 811 813 814 815 816 817 812 804 797 790 785 789 789 791 791 796 801 807 810 813 818 824 830 832 832 833 836 837 839 840 840 842 842 844 849 852 854 857 862 868 875 882 887 892 895 898 902 905 908 911 915 919 920 921 922 924 924 923 920 918 915 913 912 910 908 909 906 902 904 907 908 910 911 912 914 914 913 914 914 914 913 911 910 911 912 914 918 924 928 931 934 937 940 941 942 944 944 945 945 943 941 938 935 931 923 916 908 902 893 885 877 869 861 854 848 841 835 830 824 819 814 810 804 799 793 787 782 779 777 774 771 769 766 764 763 762 759 756 753 751 749 749 747 745 744 743 741 738 736 734 730 727 724 720 715 710 706 702 697 694 692 692 691 690 688 688 686 684 682 681 677 673 670 666 661 653 646 642 641 638 635 631 630 628 628 627 626 626 627 628 628 629 628 628 627 628 630 633 636 640 645 649 655 661 667 673 679 684 690 696 703 711 718 727 732 737 741 746 750 755 757 760 761 762 765 766 768 769 768 765 761 758 754 754 754 754 756 757 759 761 764 768 767 766 763 760 757 759 761 762 763 763 762 764 766 769 771 772 774 775 777 781 785 788 792 796 802 808 814 819 825 830 833 832 832 834 834 835 836 836 835 834 835 835 841 847 853 860 866 873 880 887 894 900 905 910 914 918 923 922 916 910 905 898 894 888 883 878 874 871 868 865 866 867 869 871 873 875 877 879 881 883 886 888 890 893 893 896 901 911 922 931 937 943 948 953 956 959 961 963 966 969 973 976 978 983 983 985 986 987 984 980 977 973 966 958 954 951 947 942 939 936 933 931 932 935 938 939 943 948 953 959 964 968 973 977 981 985 989 993 998 1002 1004 1007 1010 1013 1013 1012 1012 1011 1011 1011 1009 1007 1005 1003 1002 1000 999 997 995 996 996 997 998 997 995 994 989 985 978 971 964 957 951 948 944 941 938 936 931 928 924 920 918 918 914 911 908 904 897 891 885 880 876 869 864 858 852 848 845 841 836 833 830 827 824 821 817 812 812 811 810 809 810 815 821 829 837 845 853 861 869 877 884 892 900 907 914 923 933 940 944 948 953 957 963 971 978 985 992 998 1002 1007 1014 1025 1038 1050 1063 1073 1080 1087 1094 1097 1100 1102 1102 1099 1097 1095 1092 1087 1081 1075 1069 1063 1056 1049 1043 1039 1034 1031 1027 1035 1045 1051 1057 1062 1068 1073 1075 1077 1080 1082 1081 1082 1082 1083 1084 1084 1086 1087 1088 1088 1086 1083 1081 1078 1075 1071 1066 1060 1057 1054 1051 1046 1043 1039 1036 1032 1029 1025 1022 1019 1016 1013 1010 1008 1007 1004 1003 1001 996 993
813 817 816 813 812 817 821 826 830 833 837 840 843 847 849 852 854 856 855 853 850 847 843 841 841 840 839 837 830 823 815 806 792 791 793 796 796 797 799 800 802 803 803 798 791 785 778 775 779 782 783 784 789 796 803 807 810 815 823 827 828 828 829 833 835 836 837 837 838 839 839 842 845 847 849 854 861 867 873 878 883 886 890 893 897 900 903 906 909 911 912 913 915 917 916 913 911 909 907 906 905 904 904 901 898 901 904 905 907 908 909 910 911 911 911 911 911 910 909 907 908 911 914 921 927 932 935 938 941 941 942 943 944 946 948 948 947 944 941 938 932 925 918 911 905 897 888 880 872 865 857 851 845 839 833 828 822 816 811 805 801 795 789 784 781 779 776 773 770 768 765 764 762 759 756 753 751 749 749 747 745 744 743 740 738 735 732 728 725 723 720 716 712 707 702 696 693 691 689 689 688 686 685 684 682 680 678 674 670 667 663 657 651 644 640 638 636 634 631 629 628 628 627 627 626 626 626 627 628 627 627 627 629 631 634 637 642 647 652 657 663 669 674 681 687 693 698 705 714 720 727 732 737 741 746 751 755 760 765 767 768 772 774 776 778 776 773 769 765 763 762 763 763 765 766 768 771 773 776 773 770 768 765 763 765 766 767 767 767 766 767 769 772 774 775 777 778 780 783 788 791 795 799 805 811 815 821 827 833 838 839 839 840 841 843 844 844 844 842 842 842 846 852 858 865 872 878 886 892 898 904 910 915 919 923 929 927 922 916 910 905 899 895 890 885 881 879 875 871 871 872 874 876 878 880 882 884 886 889 891 893 896 898 901 903 906 912 922 932 937 943 950 957 961 964 967 968 972 975 977 979 981 988 991 994 994 993 992 988 985 979 972 963 957 954 949 944 941 938 936 933 937 940 943 945 949 954 959 965 971 975 979 983 987 991 997 1002 1005 1007 1009 1012 1015 1016 1016 1015 1014 1014 1013 1012 1010 1007 1005 1003 1002 999 997 994 991 992 992 994 993 993 991 988 985 981 975 968 961 953 947 944 941 938 934 931 927 924 921 917 914 914 911 908 905 901 894 888 883 877 872 867 861 855 849 844 841 837 832 828 825 822 821 818 815 811 810 809 809 809 814 821 828 835 843 851 859 867 875 883 892 900 909 916 927 936 946 953 957 961 965 970 976 983 990 997 1004 1010 1015 1021 1027 1038 1050 1060 1068 1077 1085 1093 1098 1101 1104 1108 1111 1109 1106 1103 1100 1095 1089 1084 1077 1072 1065 1058 1054 1049 1044 1040 1037 1042 1051 1057 1062 1067 1073 1078 1080 1082 1084 1085 1085 1084 1083 1082 1084 1084 1085 1086 1086 1086 1085 1082 1081 1078 1075 1070 1065 1059 1056 1053 1049 1044 1040 1036 1032 1029 1026 1024 1022 1019 1015 1012 1010 1007 1006 1004 1002 1000 996 992
810 813 812 809 809 813 818 822 827 829 833 836 839 843 845 847 848 848 846 847 846 842 839 837 837 835 833 831 825 817 811 802 791 780 780 781 781 783 785 787 787 788 787 783 777 771 765 766 769 774 775 777 782 788 795 800 805 810 818 824 823 824 827 830 833 833 834 834 834 834 831 833 836 839 842 846 852 858 863 869 873 877 881 885 889 892 894 897 900 902 903 906 908 910 908 906 904 902 901 901 901 900 899 897 895 899 901 902 904 905 906 907 909 909 909 909 909 908 907 904 907 911 917 922 929 935 939 941 941 943 943 944 946 947 949 949 948 946 943 941 935 928 922 915 909 900 892 884 874 867 860 855 849 843 837 831 825 819 811 805 801 796 791 786 783 780 776 772 770 768 766 764 762 760 757 755 753 750 750 748 746 744 742 740 737 735 731 727 722 719 718 716 713 706 700 695 692 689 687 685 683 682 682 681 680 678 675 672 668 664 661 655 648 641 637 635 634 633 631 629 629 628 628 627 626 626 625 625 626 626 625 627 630 632 635 639 645 649 654 659 665 670 676 683 689 694 701 708 715 721 727 732 736 741 746 751 755 759 765 769 772 776 781 783 784 783 780 777 774 771 771 772 773 774 776 778 780 782 783 782 777 775 771 769 769 770 770 770 770 769 770 772 775 776 777 780 781 783 787 790 793 797 802 807 813 819 826 831 837 842 845 846 848 850 851 853 853 853 851 851 851 852 857 865 871 878 884 891 897 902 909 914 918 923 928 934 932 927 922 916 911 905 901 896 893 889 885 882 878 878 879 880 881 883 885 887 889 892 895 896 899 902 905 909 912 916 918 923 932 940 947 954 962 966 968 972 974 976 978 980 981 985 991 993 994 995 994 992 990 987 981 974 965 959 956 950 946 943 940 938 936 940 944 948 952 955 961 966 972 978 983 986 990 994 996 999 1002 1005 1007 1010 1013 1016 1017 1018 1017 1017 1016 1015 1013 1011 1008 1005 1003 1001 997 994 990 988 988 989 989 989 987 985 983 981 978 972 964 957 950 944 941 937 934 928 925 923 919 917 913 910 910 907 905 901 898 891 885 881 876 871 865 860 855 850 843 838 832 827 824 821 820 817 813 812 809 808 808 806 810 818 826 834 841 849 857 865 872 881 889 898 907 917 927 939 949 959 965 969 974 977 982 988 996 1003 1008 1015 1021 1027 1033 1040 1047 1057 1066 1073 1080 1089 1098 1102 1106 1110 1115 1122 1121 1118 1113 1107 1101 1095 1091 1085 1080 1072 1066 1062 1058 1054 1050 1045 1049 1056 1063 1068 1073 1076 1079 1083 1085 1086 1087 1087 1085 1084 1083 1084 1084 1085 1084 1084 1083 1082 1080 1078 1075 1072 1068 1063 1059 1055 1051 1046 1042 1038 1033 1029 1027 1024 1023 1021 1018 1014 1012 1010 1007 1004 1003 1001 999 995 991
807 807 807 805 805 810 814 817 821 825 828 831 836 839 840 841 838 835 834 834 834 833 833 833 832 831 828 826 819 812 804 795 784 771 769 769 769 771 772 772 772 773 772 768 762 756 754 757 761 764 767 770 775 779 785 788 794 799 807 817 822 822 826 830 830 830 830 830 829 828 826 828 831 833 837 838 843 848 854 860 863 868 872 878 883 885 887 890 892 894 896 899 900 902 901 899 898 897 896 897 896 895 894 893 893 896 898 900 901 902 903 905 907 907 907 907 907 905 903 904 908 911 917 923 930 935 940 940 941 943 944 945 947 948 949 950 948 946 945 942 937 931 925 919 912 904 895 887 876 866 862 857 852 846 840 833 825 817 809 804 800 796 791 788 784 780 776 773 770 768 767 764 763 760 758 756 754 752 752 749 747 746 743 740 737 735 731 726 721 715 714 711 708 703 698 693 690 687 684 681 679 677 677 677 675 675 672 669 666 662 658 652 645 639 635 634 633 631 630 629 629 629 628 627 626 625 624 625 625 625 626 630 632 635 638 642 647 651 656 661 667 672 678 684 690 696 703 709 715 721 727 732 737 741 746 752 756 760 765 770 773 778 781 785 787 790 788 785 781 779 780 781 782 784 785 787 789 791 792 790 786 783 779 776 774 773 773 773 773 774 774 775 777 779 780 782 784 786 790 792 795 799 804 810 817 824 831 836 842 846 851 854 856 859 860 862 862 861 860 859 859 859 863 870 877 883 888 895 900 906 913 918 922 927 934 940 938 933 928 923 918 913 908 903 899 896 893 890 887 885 886 886 888 889 890 893 894 897 900 903 905 910 915 919 922 925 929 933 937 943 951 959 967 971 973 974 976 977 981 981 982 986 990 988 988 987 987 985 984 981 975 969 960 956 956 954 948 946 943 940 941 944 948 951 956 961 966 971 975 979 984 986 990 993 995 996 998 1001 1004 1007 1010 1013 1016 1018 1018 1017 1016 1015 1014 1011 1008 1004 1001 998 994 990 986 984 985 984 984 984 982 980 977 976 974 968 961 954 947 940 937 932 928 923 920 916 913 911 908 906 906 904 901 898 895 889 884 878 874 869 864 858 852 847 841 835 829 824 821 818 816 813 809 808 806 806 807 806 814 822 831 840 847 855 863 871 878 887 895 906 917 927 935 944 954 969 977 982 986 990 995 1001 1007 1014 1019 1025 1031 1038 1044 1049 1054 1062 1069 1077 1084 1093 1102 1107 1113 1119 1124 1129 1131 1125 1120 1113 1108 1102 1097 1091 1084 1079 1073 1070 1066 1063 1059 1055 1056 1062 1069 1073 1076 1077 1078 1083 1085 1086 1086 1087 1086 1085 1085 1083 1083 1083 1082 1082 1081 1079 1077 1074 1071 1067 1063 1059 1055 1053 1049 1044 1039 1034 1030 1027 1025 1024 1022 1020 1017 1014 1012 1010 1007 1003 1002 1000 998 993 989
802 801 802 801 801 806 810 811 812 816 821 825 830 833 830 828 826 822 820 820 821 824 825 826 825 824 823 821 813 805 795 786 774 765 760 760 760 762 761 759 757 758 758 752 747 742 746 750 753 756 759 762 766 769 773 776 782 789 797 807 814 816 821 825 826 827 827 826 826 824 823 826 829 830 833 833 831 838 843 851 855 861 866 871 875 878 880 882 883 886 888 891 893 895 894 893 893 892 891 891 890 889 889 888 890 892 895 897 898 900 901 903 904 904 905 904 903 902 901 904 908 912 918 924 929 935 939 940 941 943 945 946 948 948 949 950 948 946 945 941 937 933 927 923 916 907 896 886 875 866 862 858 853 846 840 833 824 815 808 803 799 795 791 788 784 780 777 774 771 769 767 766 763 761 758 757 756 753 753 750 749 746 743 739 737 735 734 730 723 715 713 708 704 700 696 692 689 685 682 679 676 673 672 671 670 670 668 666 663 659 655 649 643 637 635 633 632 630 629 628 628 628 628 627 626 624 623 624 625 624 627 631 635 638 642 645 649 654 658 663 669 674 679 685 692 697 703 709 714 720 726 732 737 742 747 752 757 761 765 771 775 779 782 785 789 793 793 792 789 787 788 789 790 792 793 796 797 799 801 798 795 791 789 786 784 781 779 778 777 778 779 780 781 782 784 786 789 791 794 796 799 802 807 815 822 829 836 842 846 850 857 863 864 867 868 871 870 869 867 866 866 865 869 876 882 887 893 899 905 910 917 923 929 935 941 947 946 941 936 932 927 921 916 911 907 903 899 897 894 892 893 893 894 894 895 898 901 903 906 910 914 919 924 929 932 935 940 943 945 948 956 964 971 974 975 975 974 974 980 981 981 983 982 979 979 978 978 977 973 970 965 959 951 951 953 952 950 950 947 944 946 950 952 954 957 961 965 969 972 974 977 980 983 986 987 989 992 995 999 1003 1007 1010 1013 1016 1017 1017 1016 1016 1014 1010 1006 1003 999 996 992 988 984 981 981 979 979 979 976 975 973 972 969 964 957 950 943 936 932 927 922 918 913 911 908 905 903 901 901 898 896 894 891 886 882 877 873 867 862 856 850 844 838 833 827 823 819 816 812 808 806 804 805 806 808 810 819 827 835 845 854 862 868 877 884 894 904 915 925 935 945 952 960 977 988 993 998 1002 1006 1012 1018 1024 1029 1035 1041 1047 1051 1054 1060 1067 1074 1081 1088 1096 1103 1112 1120 1127 1134 1140 1143 1134 1127 1120 1114 1109 1103 1097 1091 1085 1080 1076 1072 1069 1067 1063 1064 1069 1074 1075 1076 1077 1078 1082 1084 1084 1084 1084 1084 1083 1082 1082 1081 1080 1080 1079 1079 1076 1072 1069 1066 1062 1058 1055 1053 1051 1048 1043 1038 1033 1029 1027 1025 1023 1022 1019 1017 1014 1013 1010 1007 1003 1001 999 995 991 987
795 796 797 797 798 800 802 803 804 809 813 817 818 819 817 813 811 808 807 809 810 814 817 817 818 816 816 813 804 796 786 777 766 758 752 753 753 754 752 751 750 748 744 738 733 730 738 742 745 748 752 755 758 760 763 766 771 779 786 794 803 807 811 814 818 822 828 827 825 821 820 822 824 826 829 828 825 826 834 843 848 853 859 863 868 870 871 873 874 876 878 882 885 889 889 888 887 887 886 886 884 883 882 883 886 889 892 895 896 898 899 901 902 902 901 900 900 898 900 905 909 913 918 923 928 934 937 939 940 943 946 947 948 949 950 950 949 945 941 938 934 930 925 920 914 905 896 886 875 867 862 857 850 843 838 831 823 814 807 803 799 795 791 787 784 781 780 779 775 772 768 767 764 761 759 758 756 753 753 752 750 748 744 739 736 735 734 730 722 715 713 708 704 700 695 692 688 685 682 679 676 671 665 664 665 665 662 660 658 655 652 647 642 636 633 632 631 630 628 628 628 628 628 627 626 624 623 623 624 624 628 632 637 640 644 647 651 656 660 666 669 675 681 687 693 697 703 709 715 720 726 732 737 743 748 753 758 762 767 772 776 780 783 786 790 793 796 798 797 795 795 797 799 799 800 803 805 807 810 807 805 801 799 796 793 791 788 786 784 785 785 786 787 785 788 791 794 797 799 801 804 808 813 820 827 834 842 846 853 859 865 870 872 874 877 880 878 877 875 873 873 873 876 881 887 891 897 902 909 916 923 930 937 944 951 956 955 951 947 942 936 931 926 921 913 909 905 903 900 898 899 899 900 899 901 904 906 910 913 918 923 929 934 939 942 945 948 951 954 956 962 970 975 975 974 974 973 973 973 976 976 977 976 973 972 971 969 967 962 959 955 949 945 946 945 944 946 947 947 945 947 952 953 954 954 955 959 960 963 965 969 972 976 980 981 985 988 991 995 998 1002 1005 1009 1012 1013 1015 1014 1016 1014 1010 1005 1001 998 994 990 985 981 978 976 974 974 973 971 970 969 967 965 959 952 945 938 931 926 922 917 912 908 905 903 900 898 895 895 893 891 888 886 882 879 874 870 865 860 853 847 842 836 831 826 822 816 812 807 802 807 809 810 810 812 814 823 832 842 852 861 868 875 884 891 902 912 924 934 944 952 958 963 980 994 1003 1008 1011 1016 1021 1027 1033 1039 1045 1050 1052 1056 1059 1065 1072 1079 1084 1089 1095 1102 1111 1122 1132 1140 1147 1148 1140 1132 1125 1120 1115 1109 1104 1098 1092 1087 1081 1077 1074 1072 1069 1072 1075 1077 1077 1077 1077 1078 1080 1080 1082 1083 1083 1082 1081 1080 1079 1078 1078 1077 1077 1077 1073 1069 1065 1061 1058 1055 1053 1052 1050 1047 1041 1037 1035 1032 1029 1026 1024 1022 1020 1017 1015 1013 1010 1006 1003 1000 998 995 990 986
785 786 787 790 792 792 793 794 796 800 802 805 803 804 802 799 797 795 796 800 802 805 808 809 809 806 802 797 790 783 775 768 760 752 744 745 745 746 745 743 740 735 730 726 720 722 731 735 738 741 744 748 751 754 756 759 762 769 775 782 790 794 799 802 807 812 818 820 819 815 815 818 820 822 825 824 821 819 826 836 841 846 851 857 861 861 862 864 865 867 870 875 880 883 882 882 881 881 881 880 879 878 878 879 883 886 890 892 894 896 897 899 900 899 898 897 896 896 900 905 910 914 918 923 928 933 937 938 941 944 946 948 948 950 950 949 946 942 939 935 931 926 921 915 909 900 893 883 874 866 860 853 846 839 834 829 822 813 806 802 799 796 792 789 785 782 780 779 776 774 771 768 765 761 759 758 757 754 754 754 752 751 747 741 737 734 731 726 718 716 713 712 708 703 698 693 690 686 683 680 677 673 666 663 662 659 656 653 652 650 646 644 639 635 632 631 630 629 628 628 627 627 627 626 625 623 623 622 623 625 628 632 637 641 644 648 653 658 662 666 670 676 682 688 693 697 703 709 715 720 726 731 737 743 749 754 759 764 769 773 777 781 784 788 792 795 798 801 803 804 804 804 805 806 807 809 812 813 815 814 813 810 808 805 802 800 797 795 793 794 794 794 794 790 793 796 798 801 804 807 811 814 820 826 834 840 848 854 860 867 873 878 880 882 886 889 888 886 884 882 882 880 883 886 891 895 901 907 914 922 929 937 944 951 959 965 966 961 955 951 946 941 935 928 921 915 910 908 905 903 904 905 905 905 907 910 912 916 921 927 932 938 943 948 951 954 957 960 963 963 969 976 978 976 976 976 975 973 970 970 970 972 970 968 966 964 961 957 952 949 946 939 939 937 934 932 934 937 940 942 944 945 946 947 948 949 951 953 954 958 961 964 967 972 975 979 983 987 991 994 998 1001 1006 1009 1009 1011 1011 1013 1012 1009 1004 999 996 992 987 983 979 975 973 972 971 969 967 965 964 963 961 955 948 940 931 926 921 916 912 908 905 901 899 896 893 890 890 888 886 883 881 877 874 870 866 861 857 851 845 838 834 828 823 818 813 809 802 804 810 813 814 815 816 819 828 838 849 859 868 876 883 892 901 910 921 932 944 952 955 959 963 977 992 1005 1015 1019 1025 1030 1035 1042 1047 1051 1055 1058 1061 1064 1070 1076 1081 1085 1089 1094 1101 1110 1121 1133 1142 1149 1149 1142 1135 1129 1124 1119 1115 1111 1105 1099 1093 1088 1082 1079 1077 1072 1077 1080 1080 1080 1080 1079 1078 1079 1080 1080 1081 1081 1080 1079 1077 1076 1076 1075 1074 1075 1075 1071 1066 1062 1058 1055 1054 1052 1050 1049 1045 1042 1039 1038 1035 1031 1028 1025 1024 1021 1020 1017 1014 1009 1005 1003 1001 998 996 991 987
775 777 779 782 784 785 785 787 788 789 788 789 789 789 787 784 784 785 787 791 794 797 801 799 796 792 787 782 775 768 761 756 750 743 736 736 736 739 737 732 728 722 717 713 711 718 725 729 731 734 737 741 743 747 748 751 755 761 768 774 780 783 787 792 795 799 804 807 809 807 811 813 816 818 820 820 819 818 821 828 834 839 845 852 855 855 855 855 856 859 863 868 873 876 876 876 876 876 877 876 875 873 874 877 881 884 888 890 892 893 895 896 896 896 895 893 892 897 902 906 912 916 920 925 929 933 937 939 942 945 947 949 949 949 949 948 943 940 936 933 928 922 915 909 902 894 886 878 870 864 856 848 841 834 829 825 819 811 807 804 801 799 796 792 787 783 780 779 776 774 772 769 766 763 760 759 759 757 757 756 754 753 750 745 737 732 727 722 718 716 713 710 707 705 700 695 691 687 685 681 678 673 668 664 661 656 652 648 646 644 638 637 634 632 631 630 629 628 627 627 626 626 626 625 624 623 624 624 625 628 631 635 638 641 645 650 655 660 662 666 673 680 684 688 693 698 703 709 714 720 724 729 735 741 747 754 760 765 770 775 779 782 786 790 794 797 801 804 806 809 809 808 810 813 813 815 817 818 818 819 818 817 816 814 812 809 806 803 802 803 802 801 799 797 796 800 803 806 810 813 817 820 827 833 840 848 854 862 868 875 881 886 889 892 896 899 897 895 893 892 892 890 891 892 894 900 907 914 922 929 936 944 951 959 967 974 976 971 966 961 955 949 942 935 928 922 917 912 909 908 909 909 910 911 912 916 920 924 929 934 940 945 949 953 957 961 965 969 970 971 976 981 981 978 978 976 975 972 969 966 966 966 964 962 959 956 953 948 944 939 935 931 929 925 923 922 925 929 932 934 937 937 939 940 941 942 944 946 946 949 952 956 960 965 970 973 978 982 987 990 994 998 1002 1005 1005 1007 1008 1008 1008 1004 1001 997 994 989 985 981 977 973 971 970 967 964 962 961 959 958 956 950 942 934 926 921 916 911 907 905 902 898 894 891 888 885 885 883 881 878 876 871 868 864 860 856 850 845 840 835 830 825 820 814 810 804 801 806 812 815 816 818 819 824 835 845 856 866 875 883 892 901 911 919 930 940 952 958 962 965 968 973 984 998 1011 1021 1034 1040 1045 1049 1054 1056 1060 1063 1066 1068 1073 1077 1080 1085 1088 1093 1100 1109 1120 1132 1142 1150 1148 1142 1136 1131 1126 1122 1117 1111 1107 1103 1098 1094 1089 1085 1080 1075 1081 1085 1084 1084 1083 1081 1080 1080 1080 1080 1080 1080 1078 1077 1075 1074 1073 1073 1073 1073 1074 1069 1065 1062 1058 1057 1055 1053 1051 1049 1045 1045 1043 1041 1038 1034 1030 1027 1025 1023 1022 1018 1014 1008 1004 1003 1002 999 997 992 988
766 769 773 776 777 778 778 780 779 777 776 774 773 772 773 774 775 777 779 783 786 788 790 786 782 777 772 767 760 754 748 742 737 732 727 726 726 729 725 719 714 709 703 702 707 715 722 724 726 729 731 735 736 739 741 743 748 754 760 765 769 774 777 780 784 788 791 793 797 801 805 808 811 813 816 817 818 817 816 821 827 834 841 847 849 849 849 850 851 854 859 863 867 870 870 870 871 871 871 871 871 870 871 875 879 882 886 888 890 890 891 892 893 893 892 892 894 899 904 908 913 917 921 926 930 935 938 940 943 946 948 949 948 948 948 946 942 938 934 930 923 916 910 903 896 888 880 872 864 859 852 845 837 830 825 821 817 812 809 807 804 801 798 794 789 785 780 778 776 774 772 769 767 765 763 761 761 760 760 758 756 753 749 743 737 731 726 720 715 711 708 704 703 702 699 696 692 689 686 682 678 673 669 665 662 657 651 645 641 637 632 630 628 628 629 628 627 626 626 626 625 625 626 625 623 623 625 626 629 632 636 640 642 644 648 652 656 660 662 667 676 685 688 691 694 699 703 708 713 719 723 728 734 740 747 754 759 765 770 776 781 784 789 793 796 799 803 806 809 811 811 812 815 818 819 821 821 821 821 823 822 821 820 821 819 817 815 812 811 810 809 807 805 804 801 804 807 811 816 819 823 827 833 840 847 856 862 870 876 882 890 895 898 902 905 908 907 905 903 902 902 901 902 900 899 906 913 921 928 936 943 951 959 967 976 982 985 981 976 971 964 956 948 941 935 929 924 918 913 914 914 914 915 918 920 924 929 932 937 942 946 951 954 958 961 966 971 975 976 978 981 983 983 980 978 974 971 969 967 965 963 961 958 955 951 948 945 940 936 931 927 923 921 918 915 913 917 920 924 926 929 930 931 932 933 934 936 937 939 942 945 950 954 958 963 966 971 976 982 987 990 994 997 1001 1002 1003 1004 1005 1004 1000 997 994 991 987 982 978 974 970 968 966 963 959 958 956 955 954 952 944 936 928 921 916 910 906 904 902 898 895 891 887 883 880 880 879 876 873 870 866 862 858 854 849 843 839 835 831 825 820 816 810 805 800 803 808 814 816 818 819 821 828 839 850 861 872 882 892 902 910 920 929 939 949 959 964 965 965 966 968 978 990 1004 1018 1034 1043 1049 1054 1058 1061 1065 1068 1069 1070 1074 1076 1080 1084 1088 1093 1099 1106 1117 1126 1136 1145 1147 1141 1135 1128 1125 1120 1115 1110 1106 1103 1099 1096 1092 1087 1081 1078 1084 1088 1088 1087 1085 1083 1081 1081 1081 1081 1079 1077 1077 1075 1074 1072 1072 1071 1071 1071 1072 1068 1065 1062 1061 1058 1055 1054 1051 1049 1046 1045 1044 1042 1040 1036 1032 1029 1027 1024 1022 1017 1012 1007 1004 1002 1001 998 996 991 987
759 762 765 768 770 771 771 771 771 768 767 764 763 763 763 765 766 769 771 774 777 777 777 773 768 763 758 752 747 740 735 729 724 719 715 715 715 713 712 709 704 698 693 698 703 711 718 720 722 724 726 728 729 731 734 735 740 745 750 755 760 764 767 770 775 779 780 782 787 797 800 803 806 808 812 813 814 814 814 817 823 830 837 842 844 844 845 846 848 851 855 859 861 864 864 865 866 866 866 866 866 866 869 873 876 880 884 885 886 886 888 889 889 890 890 892 896 900 905 909 914 918 923 928 932 937 940 942 945 946 948 947 946 946 946 944 940 935 930 925 918 911 904 897 891 882 875 867 859 854 849 842 834 828 823 820 816 814 811 809 805 802 799 795 791 787 781 778 777 774 771 769 768 766 765 764 762 760 760 758 755 752 748 742 736 731 725 720 714 708 704 699 697 695 694 693 692 690 686 682 678 674 670 666 661 657 651 646 643 639 633 631 628 626 627 627 626 625 625 625 625 625 624 623 622 624 626 628 632 637 641 646 648 651 652 653 655 657 663 671 678 684 687 691 694 700 705 709 713 718 722 727 733 739 746 753 759 767 772 779 784 787 791 795 799 802 804 807 810 812 812 815 818 821 823 824 825 825 825 827 826 825 826 828 826 824 823 821 820 817 814 813 811 809 805 807 812 817 821 825 828 832 840 848 855 863 870 877 883 890 897 902 907 910 914 916 916 915 913 913 913 911 910 910 908 912 920 928 935 943 951 958 967 975 984 990 993 990 984 978 972 964 956 949 942 935 929 924 918 918 918 920 922 925 929 933 937 941 944 948 952 956 960 963 965 969 974 977 979 981 981 983 983 980 976 971 968 966 963 962 958 954 951 947 943 940 936 932 928 923 920 916 913 911 908 907 909 913 916 918 921 922 923 924 924 925 927 929 931 935 939 942 947 951 956 960 966 973 978 983 986 990 994 997 998 999 1000 1001 1000 996 994 991 988 983 979 975 971 967 964 961 957 955 953 952 950 948 946 939 930 923 919 912 906 902 901 899 895 891 886 882 879 876 876 874 871 869 865 861 856 852 848 843 838 835 831 826 820 814 810 805 798 801 806 810 815 817 819 821 825 833 844 855 865 875 886 897 908 918 928 938 947 957 964 966 964 960 961 964 974 986 998 1010 1021 1032 1044 1057 1063 1066 1067 1068 1069 1071 1074 1077 1081 1084 1088 1093 1099 1106 1114 1123 1132 1141 1146 1140 1133 1126 1121 1117 1112 1108 1104 1101 1098 1095 1091 1084 1080 1080 1082 1087 1090 1089 1086 1084 1082 1082 1081 1079 1077 1075 1075 1074 1073 1072 1073 1073 1072 1072 1072 1069 1066 1063 1063 1060 1056 1055 1052 1049 1045 1044 1043 1041 1038 1036 1033 1031 1028 1024 1020 1015 1011 1006 1004 1002 999 997 994 990 985
755 758 760 762 762 763 763 763 763 761 759 757 756 756 756 757 758 759 762 762 764 764 764 760 754 750 744 739 733 727 722 715 711 708 704 702 702 699 698 696 692 689 689 696 701 707 714 716 717 719 721 722 724 726 727 729 733 736 740 745 749 754 757 763 768 770 772 773 781 792 796 799 802 804 807 808 810 810 812 814 820 827 833 837 839 840 842 844 846 849 852 856 858 860 860 860 860 861 862 862 862 864 867 871 874 878 881 883 883 883 884 885 886 887 890 893 897 902 906 911 915 920 924 929 934 938 941 943 946 947 948 948 946 946 945 941 936 930 925 920 913 906 899 893 886 878 870 862 854 849 845 839 832 828 824 821 819 816 813 810 806 803 800 795 791 787 783 779 776 773 771 770 769 767 767 766 765 762 762 758 755 751 747 742 736 731 727 722 716 710 705 699 693 689 689 688 687 685 683 681 679 675 670 666 661 656 651 647 644 639 635 633 629 626 626 626 625 625 624 624 624 624 623 622 623 626 628 630 635 639 643 648 651 656 659 660 661 663 666 670 676 683 687 691 695 702 706 710 714 719 723 728 734 740 748 755 761 773 777 783 787 790 794 798 801 803 806 809 811 813 815 818 821 824 826 826 827 828 829 830 830 830 833 834 833 831 830 831 828 825 822 820 817 813 810 812 818 822 826 830 833 837 845 854 861 869 878 885 892 898 906 910 914 917 921 924 923 923 922 922 922 921 920 921 922 921 927 935 942 949 960 967 975 984 992 999 1002 998 992 987 979 972 964 956 948 940 933 927 923 923 925 927 931 934 938 942 945 949 950 953 957 961 964 968 971 973 974 975 975 972 974 976 978 976 973 969 965 962 959 956 951 947 944 940 936 932 929 924 920 916 912 909 906 904 902 902 904 905 908 910 912 913 914 915 916 917 918 922 926 931 934 938 941 946 950 956 962 969 975 979 983 986 990 992 993 995 996 997 996 993 990 988 984 980 976 972 969 965 962 957 954 951 947 946 945 943 941 932 926 921 917 910 904 900 897 894 890 885 881 878 875 872 872 870 867 865 861 856 852 847 842 837 834 830 826 822 815 810 804 799 801 804 807 812 816 819 821 824 830 838 848 859 869 879 890 901 912 923 934 945 955 963 965 965 962 959 957 959 969 982 992 1002 1011 1022 1035 1048 1060 1066 1065 1068 1071 1071 1074 1078 1081 1084 1088 1093 1099 1106 1113 1122 1130 1139 1145 1138 1130 1123 1116 1113 1109 1106 1102 1098 1095 1093 1089 1083 1081 1080 1079 1084 1087 1086 1084 1084 1082 1081 1080 1078 1076 1074 1073 1073 1073 1073 1074 1075 1074 1074 1073 1071 1067 1065 1064 1062 1058 1055 1053 1049 1047 1044 1041 1040 1037 1034 1032 1029 1026 1021 1018 1013 1009 1005 1002 1000 997 996 993 988 985
752 754 754 753 753 754 755 755 755 753 752 750 749 749 749 751 751 750 750 750 750 752 751 747 741 736 731 726 719 713 709 705 701 698 694 691 691 689 687 685 683 683 689 694 700 705 710 711 712 714 715 717 719 720 724 727 730 732 735 738 740 744 750 755 760 763 765 767 775 786 792 795 798 800 803 804 805 807 808 813 817 825 830 834 836 837 839 841 843 846 848 852 854 855 855 855 856 856 857 857 859 862 866 869 873 875 879 880 880 880 880 882 883 887 891 895 899 903 908 913 917 922 926 931 935 940 942 944 946 948 949 948 947 946 945 940 933 927 921 916 909 902 896 889 884 876 866 857 849 844 840 835 831 829 826 822 820 817 814 810 807 804 800 795 791 786 783 780 778 775 773 771 770 769 769 769 769 765 765 760 756 751 747 742 738 734 729 725 719 713 708 703 696 691 687 683 680 678 678 677 676 673 669 665 661 656 651 647 643 637 635 632 630 627 626 626 624 624 623 623 622 622 621 622 624 627 630 633 637 641 645 649 653 658 663 666 668 671 672 673 678 682 687 690 697 703 708 712 717 722 726 731 737 745 756 765 770 776 781 786 790 794 797 800 802 805 807 810 812 814 817 820 823 826 827 828 829 831 832 833 834 835 840 840 840 840 839 841 838 835 832 829 824 818 816 819 823 827 831 834 838 842 850 859 866 875 884 892 899 906 913 919 922 925 928 930 930 929 928 929 929 930 932 934 935 935 937 941 949 958 968 976 984 993 1000 1007 1009 1005 1000 995 987 980 972 964 955 946 938 931 929 929 933 936 940 943 946 950 952 954 956 958 961 965 969 971 971 972 972 973 970 964 966 968 971 969 967 963 961 958 954 948 945 940 936 933 929 926 923 918 913 909 904 901 899 898 897 896 898 899 901 904 906 906 906 906 906 909 912 916 921 926 929 933 937 942 947 953 959 965 971 975 980 982 986 988 989 990 991 993 992 989 986 985 981 978 974 970 967 963 959 955 952 948 945 943 940 938 936 928 924 919 915 909 904 899 894 889 884 881 877 874 870 868 868 866 863 861 857 853 848 842 836 832 829 825 822 817 810 805 799 798 803 806 809 813 817 821 823 826 833 841 851 862 873 883 893 904 916 927 939 950 960 965 964 963 960 958 955 954 962 972 982 991 1000 1011 1025 1038 1053 1061 1060 1065 1069 1071 1075 1078 1081 1084 1088 1093 1099 1106 1113 1121 1129 1137 1142 1134 1124 1116 1107 1104 1101 1098 1097 1096 1093 1091 1088 1084 1082 1080 1078 1080 1083 1082 1081 1080 1080 1078 1077 1075 1073 1072 1072 1073 1073 1073 1074 1074 1074 1072 1071 1070 1066 1063 1063 1061 1055 1054 1054 1053 1049 1045 1041 1038 1036 1033 1030 1027 1022 1018 1015 1011 1006 1003 1001 999 996 994 991 987 986
748 748 745 743 744 745 746 746 746 746 744 743 742 742 743 742 741 739 740 740 739 741 738 733 728 722 717 711 706 702 698 698 694 691 688 684 684 682 681 680 679 683 689 694 699 702 705 706 708 709 710 712 715 718 722 726 728 730 732 734 736 739 744 748 753 756 758 763 770 780 785 791 793 796 798 800 801 802 805 810 814 820 827 831 833 835 836 838 840 842 844 847 850 851 851 851 851 850 851 851 855 860 864 867 870 873 876 877 878 878 878 879 882 887 892 896 900 905 909 914 919 923 927 932 937 941 944 945 946 949 949 948 947 946 945 939 932 925 917 910 904 899 892 886 880 872 863 855 847 844 840 837 832 830 827 824 821 818 816 812 808 804 801 797 793 789 785 783 782 779 776 773 772 772 772 772 772 767 767 763 758 754 751 745 741 737 733 728 723 717 710 705 699 694 688 683 678 676 674 673 671 669 666 664 660 655 651 645 639 635 632 631 628 627 626 625 624 623 622 622 621 622 623 624 628 630 632 635 639 643 646 650 654 658 664 669 674 677 680 682 684 683 686 691 698 704 710 715 719 724 730 735 743 753 761 768 774 779 784 790 793 796 798 801 803 806 808 811 814 817 820 822 824 827 829 830 832 834 835 836 837 842 846 849 849 850 849 850 848 845 841 837 832 826 821 825 829 832 836 839 843 846 855 863 871 881 889 897 905 913 920 926 928 931 935 937 937 936 937 938 938 939 942 943 945 945 947 949 956 967 977 984 992 1001 1007 1013 1017 1014 1008 1003 995 988 979 971 962 954 944 938 937 939 943 945 949 952 954 957 958 960 963 965 967 968 969 968 968 969 970 970 965 956 956 959 963 961 958 956 956 953 947 942 938 934 929 926 924 923 919 914 909 904 899 896 895 893 891 889 891 893 894 898 899 899 899 899 900 903 907 912 916 921 925 929 934 938 944 950 956 962 968 972 975 978 981 984 985 987 988 990 988 986 983 981 979 976 972 968 965 961 957 954 951 947 944 941 937 934 930 926 922 918 914 907 903 897 892 887 882 876 873 870 867 864 864 862 860 858 853 848 843 836 831 827 823 820 817 813 806 800 796 801 804 807 810 813 818 823 826 828 833 843 854 865 875 886 896 908 920 932 943 955 965 964 962 961 958 956 953 952 958 964 972 980 990 1002 1016 1029 1045 1053 1054 1059 1064 1071 1075 1078 1081 1084 1087 1093 1099 1106 1113 1119 1125 1130 1135 1127 1116 1107 1098 1093 1092 1091 1092 1091 1089 1088 1085 1082 1081 1079 1077 1077 1079 1078 1077 1075 1074 1072 1071 1069 1069 1069 1070 1072 1072 1073 1073 1073 1072 1071 1070 1067 1064 1061 1060 1058 1054 1054 1053 1053 1049 1045 1040 1036 1035 1031 1028 1023 1019 1015 1011 1008 1005 1002 999 997 994 992 988 987 985
740 738 736 734 735 735 736 736 736 736 735 735 734 734 734 732 730 730 729 730 728 729 726 720 715 709 704 698 694 694 693 693 689 685 682 678 678 677 677 675 678 683 688 692 695 699 702 702 703 704 706 707 712 716 720 724 726 728 730 732 735 738 741 744 747 750 754 759 767 774 778 782 789 791 793 796 798 800 802 806 811 816 823 828 830 832 833 835 836 838 841 843 846 846 846 846 846 845 846 847 853 857 861 863 867 870 874 875 875 876 877 877 882 887 891 896 901 906 911 915 921 925 929 935 939 943 945 947 948 950 949 949 947 946 945 938 931 924 915 908 902 895 888 882 876 870 863 855 849 845 842 838 834 831 828 826 823 820 817 814 810 807 806 802 798 795 792 790 787 784 782 780 779 777 775 774 774 771 771 766 763 760 755 751 745 740 736 730 725 719 712 706 701 696 691 685 681 678 674 670 668 663 661 659 655 650 646 641 635 633 630 629 626 626 626 624 624 623 622 621 621 622 624 627 629 631 634 636 640 644 647 651 655 660 665 671 675 679 683 687 690 692 690 692 697 703 709 716 722 727 734 741 749 758 764 769 775 781 786 792 795 798 799 802 804 807 810 813 816 819 822 824 827 830 832 833 835 837 838 839 842 846 848 852 857 859 859 860 857 854 850 846 841 833 826 831 836 840 842 845 847 851 859 868 877 886 895 902 910 918 926 932 935 937 941 944 945 945 947 947 947 948 950 951 953 954 955 956 963 974 985 992 1000 1007 1014 1020 1026 1024 1016 1011 1003 995 986 978 970 960 951 946 946 948 952 954 956 957 958 961 963 964 966 968 968 966 965 963 964 965 965 963 958 950 946 952 955 953 952 952 952 950 944 939 933 927 925 922 920 919 915 910 905 900 895 892 890 888 886 884 883 886 888 891 892 893 893 894 895 899 903 907 912 916 921 926 931 936 941 947 953 960 967 970 973 975 978 980 981 983 985 986 985 983 981 979 978 974 971 967 963 959 956 952 949 945 943 940 936 932 929 925 920 915 911 906 901 896 891 885 880 875 870 867 863 860 860 858 856 853 849 843 837 830 825 822 818 815 813 809 803 795 797 801 804 807 811 815 821 827 831 834 839 846 855 868 879 891 901 913 925 937 949 960 965 961 960 958 956 953 952 952 956 961 966 970 980 994 1007 1022 1037 1044 1048 1053 1061 1070 1074 1077 1080 1084 1087 1093 1098 1103 1108 1113 1118 1123 1125 1119 1111 1101 1091 1084 1083 1085 1086 1085 1083 1082 1080 1079 1079 1078 1077 1076 1076 1074 1073 1070 1069 1064 1063 1063 1064 1066 1066 1068 1069 1071 1071 1070 1069 1069 1068 1065 1063 1060 1058 1055 1053 1053 1051 1049 1045 1043 1039 1036 1032 1028 1025 1020 1016 1012 1009 1006 1003 1000 998 996 992 989 985 984 983
731 728 727 725 725 725 726 727 726 726 725 726 726 725 723 721 720 719 719 719 716 716 713 707 702 696 691 690 689 689 687 687 683 680 676 672 672 671 672 673 677 682 686 688 691 695 697 698 699 701 701 704 709 714 718 722 724 727 729 731 733 736 739 740 741 745 749 757 766 775 778 781 786 789 790 793 797 799 801 804 810 814 820 825 827 829 830 832 834 835 838 839 841 841 840 841 840 840 840 846 851 855 858 860 863 867 870 870 871 873 875 877 882 886 891 896 902 907 912 917 922 926 932 937 941 946 948 949 950 951 951 949 947 946 944 938 929 921 912 906 898 892 887 882 876 871 864 858 852 848 843 839 836 832 829 826 824 821 817 818 818 816 813 810 806 802 798 795 793 791 790 788 786 784 782 780 778 775 775 772 768 766 761 757 750 745 740 733 727 720 714 708 703 698 692 686 682 679 675 672 668 665 661 657 653 648 643 639 634 632 629 627 626 624 625 623 623 622 622 620 621 622 624 626 629 631 634 636 641 644 648 651 657 662 667 672 677 681 685 689 693 696 693 695 699 703 710 718 725 731 737 745 752 760 766 771 777 782 787 791 796 799 801 803 806 809 811 815 819 822 825 827 829 831 834 836 838 839 841 843 846 848 849 854 861 865 866 867 865 861 858 854 849 841 834 838 844 847 850 852 855 859 867 875 882 891 900 908 915 924 931 936 940 943 947 950 952 953 954 956 956 957 959 960 960 961 962 965 967 978 991 999 1007 1014 1021 1027 1032 1028 1023 1019 1010 1003 993 985 977 966 957 955 955 957 960 961 961 961 962 963 964 965 965 963 962 961 959 958 960 959 956 954 948 941 936 943 949 948 948 948 948 947 941 935 929 923 921 919 917 915 912 907 902 897 892 889 887 885 882 879 877 879 882 885 887 887 889 890 892 895 899 904 909 914 919 923 928 933 939 945 952 958 965 969 971 973 976 978 978 980 981 983 982 980 979 979 977 974 969 966 961 957 953 951 948 944 941 938 934 930 927 923 918 913 909 905 900 894 889 883 878 874 869 864 860 856 856 854 851 848 843 837 831 825 819 815 813 812 809 805 799 795 798 802 804 808 813 819 826 832 837 841 846 851 861 872 884 895 906 919 930 941 953 964 963 960 957 955 953 953 952 952 957 961 967 968 972 987 1000 1014 1029 1038 1044 1051 1060 1069 1073 1077 1080 1084 1088 1092 1097 1100 1104 1107 1113 1117 1115 1110 1107 1099 1089 1077 1077 1079 1080 1079 1077 1076 1075 1075 1074 1073 1073 1070 1068 1064 1063 1061 1058 1056 1057 1059 1060 1062 1062 1064 1066 1068 1068 1067 1067 1066 1065 1063 1061 1058 1056 1053 1052 1050 1047 1045 1041 1039 1035 1032 1028 1024 1021 1017 1012 1009 1007 1004 1002 999 996 993 989 985 982 981 979
722 719 718 717 716 717 716 717 717 717 716 716 717 715 714 712 710 708 707 706 705 704 700 694 689 686 682 683 682 683 682 680 678 675 671 668 668 666 668 672 676 680 683 685 688 691 694 694 696 697 699 702 705 710 714 717 720 723 727 729 731 734 735 735 737 743 748 756 766 776 779 782 784 789 790 793 796 799 801 805 809 814 819 822 824 826 827 828 831 832 834 835 836 835 834 834 834 834 836 844 849 854 856 856 859 863 866 866 867 870 874 876 881 886 892 896 902 907 912 918 923 928 934 939 944 948 949 951 952 953 952 951 948 946 945 936 926 917 912 907 898 893 890 886 882 875 867 861 854 850 844 841 837 833 829 826 824 821 820 823 825 825 822 819 814 810 805 802 801 799 797 796 794 792 790 787 783 780 780 778 774 771 767 761 755 747 743 736 729 722 716 709 705 699 693 687 683 680 677 673 669 666 662 658 654 649 643 639 635 633 630 627 626 623 624 623 623 621 621 620 621 622 624 626 628 631 634 637 641 645 648 653 659 664 669 674 680 683 688 691 695 697 697 700 703 707 713 720 728 735 740 748 756 762 767 773 778 783 787 791 797 800 802 804 808 811 814 817 821 824 827 829 831 833 835 838 840 842 844 846 848 850 851 856 862 865 869 870 868 866 863 860 856 847 842 847 851 855 858 861 864 868 876 883 890 897 905 913 921 929 937 942 945 948 952 955 956 959 961 964 964 965 966 967 968 968 969 973 975 984 996 1004 1013 1020 1028 1034 1039 1035 1031 1027 1018 1010 1002 993 985 973 966 966 964 966 966 966 965 966 966 962 960 961 961 959 957 956 954 952 951 949 947 945 938 933 928 933 941 942 943 943 944 944 938 932 925 920 917 916 913 911 908 903 898 893 889 885 884 880 876 873 870 872 876 879 881 883 884 886 888 891 896 902 907 913 917 921 926 931 937 944 951 957 964 967 969 972 974 976 977 978 979 979 980 979 978 978 977 973 968 964 959 955 951 948 946 942 939 935 932 928 924 920 916 912 907 903 898 892 887 882 877 872 867 863 858 852 852 848 845 843 838 832 825 820 815 811 809 807 805 802 796 797 801 805 807 812 819 826 834 839 843 848 854 859 871 879 888 900 912 925 939 946 955 964 961 958 955 954 953 952 952 952 957 960 963 963 966 980 994 1008 1021 1032 1041 1051 1060 1069 1072 1076 1080 1084 1088 1091 1096 1099 1102 1105 1110 1112 1108 1103 1098 1093 1086 1075 1072 1074 1075 1074 1072 1071 1070 1069 1069 1067 1066 1063 1058 1054 1052 1050 1046 1048 1052 1054 1055 1057 1059 1061 1063 1066 1065 1065 1064 1062 1060 1059 1057 1054 1053 1050 1048 1046 1043 1041 1038 1035 1031 1028 1024 1021 1017 1013 1008 1006 1004 1002 1000 997 993 990 986 981 979 978 976
713 711 710 710 708 708 707 707 707 707 707 708 709 707 705 703 701 699 697 695 693 691 688 684 680 678 675 675 676 675 675 674 672 670 667 665 665 662 667 670 674 678 680 683 686 687 689 690 692 694 695 699 702 705 708 711 715 718 722 725 727 729 728 730 736 743 749 756 765 774 778 781 785 788 791 794 797 800 801 805 810 814 816 818 820 822 824 825 827 828 829 830 830 829 828 827 828 828 834 839 845 852 853 854 855 859 862 865 867 870 873 876 881 887 892 897 902 907 913 919 925 930 935 940 946 950 951 952 954 954 953 952 949 948 946 933 923 916 915 913 905 898 894 890 886 878 871 864 857 852 846 842 837 835 834 832 830 827 827 830 832 833 831 826 822 818 815 811 809 807 805 804 802 799 795 792 788 785 785 783 780 776 771 763 757 750 746 739 732 725 718 711 705 699 693 688 684 681 678 674 670 667 664 660 655 651 647 641 637 634 631 630 628 627 626 623 622 621 619 620 621 622 624 626 628 631 634 637 641 645 650 656 660 666 671 677 681 685 690 693 697 699 701 704 707 711 716 725 732 739 745 753 759 764 769 773 778 782 786 790 796 801 804 806 810 813 817 820 824 826 828 831 833 835 838 839 842 844 846 848 850 852 854 857 861 865 870 872 873 870 867 864 861 853 850 854 858 862 867 870 874 878 885 893 900 905 910 918 926 934 942 947 950 954 956 960 962 964 966 968 968 970 971 973 973 975 979 983 988 993 1003 1011 1020 1026 1032 1038 1045 1043 1039 1034 1026 1018 1010 1002 994 983 978 976 972 971 970 969 969 970 966 962 958 957 957 955 953 950 947 944 942 940 938 935 929 925 921 925 932 934 936 937 939 940 935 929 922 916 914 912 909 906 903 899 894 889 885 881 878 875 870 867 865 867 871 874 877 878 880 882 883 888 894 900 905 910 915 920 926 931 938 944 950 957 963 965 968 970 972 974 975 976 976 976 977 977 977 977 975 971 966 961 956 953 949 946 943 939 936 933 929 926 922 918 914 910 906 902 896 891 886 880 875 870 865 861 856 850 850 845 840 837 832 826 820 814 810 806 805 802 801 798 794 800 806 811 815 821 829 838 846 847 850 856 861 870 880 890 899 910 924 932 942 949 959 963 961 958 955 954 953 952 952 952 954 956 956 957 961 974 989 1001 1013 1024 1036 1047 1059 1068 1072 1077 1081 1085 1088 1091 1095 1098 1100 1103 1106 1103 1100 1095 1090 1086 1079 1070 1066 1067 1068 1067 1067 1065 1065 1064 1063 1060 1057 1054 1050 1046 1040 1038 1039 1041 1044 1046 1050 1052 1055 1058 1061 1063 1063 1062 1060 1058 1056 1054 1052 1050 1048 1047 1044 1042 1039 1037 1034 1031 1027 1025 1021 1017 1013 1009 1004 1002 1000 998 996 993 989 986 982 978 975 973 971
705 703 703 702 701 701 699 699 698 698 699 699 700 698 696 695 692 691 688 685 683 680 678 676 673 670 669 667 668 668 668 668 665 661 658 658 658 661 665 668 672 675 678 680 683 683 685 686 688 690 691 694 697 699 702 704 709 712 716 718 720 722 723 729 736 743 750 756 764 773 776 780 783 786 789 793 796 799 802 805 808 811 813 814 816 818 820 821 822 823 824 824 824 824 823 822 821 825 828 832 839 847 847 849 853 857 862 865 868 871 873 876 882 887 892 897 902 908 914 920 926 931 936 942 946 951 953 954 955 956 955 953 951 949 947 934 926 924 922 919 913 906 899 895 890 882 874 866 860 854 849 845 841 840 841 841 838 837 837 838 839 839 839 834 831 827 823 820 818 816 814 812 806 803 800 796 793 790 790 787 783 779 774 766 759 753 750 743 735 728 720 713 706 700 694 689 684 681 677 674 670 666 664 661 657 653 649 643 639 635 633 632 630 628 626 624 623 621 619 621 621 622 624 626 629 632 634 637 642 647 652 657 663 668 673 678 683 687 691 696 699 702 705 709 711 715 720 729 736 743 750 757 762 767 771 775 778 783 786 790 795 803 806 810 813 816 819 823 826 828 831 832 835 837 839 842 844 846 848 850 853 854 855 858 861 866 870 873 874 873 871 868 864 858 857 861 864 869 875 879 883 888 895 901 905 909 915 923 931 939 945 950 954 958 962 965 967 969 971 972 972 973 975 977 979 981 987 993 1000 1004 1011 1019 1026 1030 1034 1040 1048 1047 1044 1040 1034 1027 1019 1011 1002 993 986 981 979 977 976 971 969 969 965 961 957 954 953 950 948 943 939 937 934 932 929 926 922 917 912 917 924 925 927 929 931 933 931 924 918 913 911 907 905 902 898 894 890 885 881 877 872 869 865 861 859 862 866 870 872 874 876 878 880 886 892 898 904 908 914 920 926 932 938 945 951 956 960 962 965 968 970 972 972 973 973 974 974 974 974 974 972 968 963 959 954 950 947 944 939 936 933 930 926 922 919 915 912 908 904 900 895 889 884 878 873 869 864 859 854 849 849 844 838 832 827 821 815 810 806 801 800 797 796 794 796 803 810 817 822 832 841 850 857 858 862 868 874 884 893 902 912 921 931 938 945 953 960 961 961 958 955 954 954 953 952 951 948 949 950 951 955 969 981 992 1004 1015 1027 1038 1051 1064 1070 1076 1082 1086 1089 1092 1094 1096 1098 1101 1103 1098 1094 1089 1083 1079 1071 1064 1059 1059 1060 1060 1060 1058 1059 1058 1055 1052 1049 1046 1041 1038 1033 1031 1031 1034 1038 1040 1043 1045 1050 1053 1056 1059 1059 1057 1056 1054 1052 1050 1048 1046 1044 1043 1040 1037 1035 1031 1029 1026 1023 1021 1018 1013 1009 1005 1001 998 996 994 991 988 984 981 978 974 971 969 967
697 696 696 695 693 693 692 690 690 690 691 691 691 689 687 687 685 682 680 677 675 672 669 668 665 663 661 661 660 661 661 660 658 655 653 655 655 659 662 666 669 672 675 676 678 678 680 682 683 685 688 689 691 693 696 699 702 705 707 711 713 715 720 726 732 741 749 757 764 772 775 778 781 783 786 790 794 798 801 804 805 807 809 811 812 814 816 816 817 817 818 819 819 818 818 817 818 821 824 827 832 839 843 847 852 857 862 865 868 871 873 877 883 888 893 897 903 910 916 922 928 932 938 942 947 951 954 956 957 958 956 955 952 951 948 937 931 928 927 923 918 911 905 899 892 885 876 868 862 857 854 851 848 847 849 848 847 846 846 847 847 848 847 843 840 835 831 829 826 824 822 819 812 808 805 801 798 794 794 790 786 781 776 769 761 755 753 746 737 729 722 714 708 701 695 690 685 681 677 674 670 667 663 661 657 654 649 645 640 637 634 632 630 627 626 624 624 623 619 620 621 622 623 626 629 632 635 639 644 648 654 659 664 669 675 680 685 689 693 697 701 705 709 713 715 719 725 733 740 748 755 761 766 770 775 779 782 785 789 792 797 805 808 812 816 819 822 825 827 829 832 834 836 839 841 844 846 848 851 852 854 855 856 859 863 867 870 873 874 873 873 871 866 865 865 865 868 874 880 885 891 896 902 906 910 914 920 928 935 942 948 953 957 962 966 968 970 973 974 976 976 977 979 981 984 987 993 999 1007 1014 1019 1023 1028 1032 1036 1043 1049 1049 1045 1038 1033 1027 1021 1015 1007 1002 995 988 984 982 979 971 967 967 963 960 955 951 948 944 940 936 932 929 926 924 921 918 914 909 905 908 915 918 919 922 923 925 924 918 914 910 907 903 900 897 894 890 885 881 877 873 868 863 859 855 853 858 861 866 868 869 872 874 876 883 889 894 900 907 914 921 927 934 940 945 949 953 956 960 962 964 967 969 969 969 970 971 971 971 971 971 969 965 961 955 951 947 944 941 936 933 930 926 922 919 915 912 909 905 902 898 893 887 882 876 872 867 862 858 853 848 848 843 838 833 824 816 810 806 802 797 794 791 791 798 804 810 817 824 833 842 852 862 869 872 877 882 887 897 907 915 925 931 937 944 950 957 960 960 960 959 956 955 954 953 953 953 948 944 945 946 951 961 971 983 994 1006 1019 1031 1045 1059 1066 1073 1080 1085 1089 1092 1092 1093 1096 1097 1100 1097 1089 1083 1076 1072 1064 1057 1052 1051 1052 1051 1051 1051 1053 1053 1049 1046 1042 1039 1033 1030 1025 1024 1025 1027 1030 1033 1036 1038 1043 1046 1049 1052 1052 1052 1051 1049 1048 1045 1044 1042 1041 1038 1036 1032 1029 1026 1024 1021 1018 1016 1013 1009 1005 1001 997 994 992 989 986 984 980 977 973 970 967 964 962
690 689 688 687 686 684 684 682 682 682 682 683 684 681 680 678 677 674 672 669 666 664 662 660 657 656 655 655 654 653 653 653 651 650 650 653 653 656 659 663 667 670 670 672 673 674 676 678 680 682 685 687 688 690 692 692 695 698 699 702 705 709 714 720 726 736 745 755 762 769 772 776 778 780 783 788 791 795 797 800 802 803 805 807 808 809 810 811 811 812 813 813 813 812 811 811 814 818 820 823 828 835 841 847 852 857 863 865 868 871 874 877 883 887 893 897 903 909 916 922 928 933 938 943 948 952 954 957 959 959 958 956 954 952 949 942 937 932 930 926 921 914 909 902 894 885 878 870 864 862 860 856 854 853 854 855 855 856 855 855 856 856 855 851 847 843 838 836 834 831 829 825 817 812 809 806 801 797 797 792 789 783 778 772 762 756 753 746 740 731 723 716 710 703 696 690 685 681 678 674 670 667 663 660 657 653 649 646 641 638 635 632 629 627 626 625 624 624 619 619 620 622 623 625 628 631 635 640 646 650 656 661 666 671 677 682 686 690 695 698 702 708 713 717 720 723 730 737 745 752 758 764 769 774 779 782 786 790 793 796 802 808 811 815 818 821 823 826 828 831 833 836 838 842 844 846 848 850 853 854 855 856 857 860 863 868 870 870 871 870 870 869 868 868 869 868 871 876 882 887 892 896 902 908 913 918 924 932 938 944 951 955 960 964 967 969 972 975 978 979 979 982 984 987 990 992 999 1006 1012 1016 1018 1024 1028 1034 1038 1044 1049 1049 1042 1036 1030 1024 1020 1014 1009 1006 1002 995 989 988 980 972 964 963 961 956 952 946 942 937 932 927 923 921 918 915 914 910 906 901 897 899 906 909 911 914 916 916 916 911 909 906 902 899 896 893 889 885 881 878 873 869 864 859 855 851 851 855 858 862 864 866 868 870 873 879 885 891 897 904 912 920 927 933 939 943 946 950 954 957 959 961 962 964 965 965 967 968 968 968 968 968 966 962 958 953 948 944 941 937 933 930 926 923 919 915 912 908 905 902 900 895 890 885 879 875 870 866 861 857 852 847 847 842 836 832 823 815 809 803 798 793 792 795 798 804 812 818 824 833 844 853 863 873 880 886 891 895 901 910 919 927 934 941 946 953 957 958 959 958 958 957 956 955 955 954 954 954 949 944 941 943 948 957 966 977 986 998 1012 1026 1041 1054 1061 1068 1075 1082 1087 1089 1091 1091 1093 1094 1097 1094 1087 1080 1073 1066 1059 1052 1047 1044 1043 1043 1044 1046 1047 1048 1044 1040 1035 1032 1026 1022 1018 1015 1019 1020 1023 1025 1029 1032 1035 1038 1041 1045 1044 1043 1044 1042 1042 1040 1039 1037 1036 1034 1031 1028 1024 1021 1018 1016 1013 1011 1009 1004 1000 997 993 990 987 985 982 979 976 973 969 966 962 961 958
683 682 682 680 679 676 675 674 673 675 676 676 677 675 673 671 669 667 664 661 658 656 654 652 650 650 650 650 649 647 647 646 645 647 648 651 651 654 657 661 664 666 668 668 669 670 672 674 677 679 682 684 685 687 688 687 689 691 694 695 697 703 707 713 719 729 738 748 757 764 768 772 775 778 781 785 788 791 794 796 798 800 800 802 802 803 804 806 806 807 807 807 807 806 805 804 810 814 817 821 828 835 841 847 851 857 863 866 868 871 874 878 882 888 892 897 903 909 915 921 927 933 938 943 948 952 954 957 959 960 958 956 955 953 951 948 942 937 933 929 923 917 909 901 891 882 877 872 867 865 865 862 859 859 860 861 862 863 863 863 864 864 862 858 854 850 844 841 840 838 836 833 823 818 813 810 805 802 802 797 791 784 778 770 762 754 751 745 738 731 724 717 711 704 696 690 686 681 678 674 670 667 663 659 656 652 649 644 641 637 635 632 629 627 626 626 625 625 621 618 620 621 623 625 628 632 636 641 647 652 657 662 667 673 678 683 688 692 696 701 704 709 715 719 725 727 735 742 748 756 762 767 772 777 782 787 791 794 798 801 807 812 814 818 820 822 825 827 830 833 835 839 841 844 847 849 851 853 854 855 856 857 858 861 863 865 867 868 868 867 867 865 865 867 869 870 871 876 881 885 889 894 900 906 913 919 925 933 940 946 953 958 962 964 967 970 973 976 978 980 980 984 988 992 996 999 1005 1009 1013 1015 1018 1023 1028 1034 1039 1043 1047 1047 1040 1034 1029 1023 1018 1012 1008 1005 1001 997 993 988 980 973 964 961 958 952 946 941 937 931 926 921 917 913 910 907 906 902 898 895 891 891 897 900 903 906 909 908 909 908 906 902 898 896 893 890 886 882 877 873 869 865 860 856 851 847 849 852 855 857 860 862 865 866 869 875 881 887 895 901 908 916 924 929 933 939 943 947 951 953 955 956 958 959 960 961 961 961 963 963 964 965 963 959 955 950 945 941 937 934 931 926 922 919 915 911 908 905 902 899 896 892 887 882 877 873 868 864 860 855 851 846 846 840 835 831 822 815 809 800 794 790 794 803 808 813 821 826 831 844 854 864 873 882 889 895 902 908 915 922 930 936 943 950 956 957 958 957 958 957 957 956 955 956 956 956 954 954 950 946 941 941 948 957 965 974 981 993 1008 1021 1036 1049 1056 1064 1071 1078 1084 1087 1088 1090 1090 1092 1094 1091 1084 1077 1070 1061 1054 1047 1041 1036 1035 1037 1039 1041 1042 1043 1039 1034 1030 1025 1021 1015 1010 1008 1012 1013 1016 1019 1021 1025 1027 1031 1034 1038 1037 1036 1036 1035 1035 1034 1033 1032 1030 1029 1024 1022 1019 1015 1013 1010 1009 1006 1004 1000 996 992 989 987 984 981 978 975 972 968 965 961 958 957 957
677 676 676 674 672 670 668 668 667 668 669 669 670 668 666 664 662 660 657 654 651 649 646 646 645 645 646 647 645 644 642 642 643 645 646 648 648 650 655 657 661 663 664 665 666 668 670 672 674 677 679 680 681 683 683 683 683 686 689 689 690 696 701 706 712 722 731 739 748 755 760 764 768 773 777 781 784 787 790 792 794 795 795 796 796 798 799 799 800 800 801 801 801 800 799 799 802 807 809 818 827 834 840 846 851 858 863 866 868 871 874 878 882 887 892 896 902 908 914 920 926 931 936 942 947 952 954 956 958 960 958 956 955 955 953 950 945 941 937 931 924 917 909 900 890 885 882 878 874 871 870 867 865 865 866 867 868 869 871 871 872 872 870 865 859 854 848 844 843 842 842 838 830 823 818 813 808 804 804 797 789 782 775 768 761 752 747 742 735 729 723 717 711 704 697 690 686 682 678 673 669 666 662 659 656 652 648 644 640 637 634 631 629 627 626 626 625 625 622 619 619 620 622 625 629 634 638 643 648 654 658 664 669 675 679 685 689 694 698 703 706 711 716 722 727 731 739 745 751 758 765 769 775 780 785 790 794 798 802 806 811 814 816 819 821 824 826 828 831 835 838 842 844 847 850 851 853 855 855 856 857 858 859 860 861 862 864 866 865 864 863 861 860 863 866 869 871 875 879 884 887 892 898 904 911 916 922 930 938 946 954 959 963 964 967 970 973 975 978 980 980 984 989 994 999 1002 1007 1008 1011 1014 1017 1022 1025 1031 1037 1042 1044 1044 1039 1033 1027 1022 1017 1011 1007 1003 1000 995 989 983 977 971 963 958 952 946 940 936 931 926 920 916 912 907 903 900 897 894 890 889 886 884 887 891 895 898 901 902 905 906 902 898 895 892 889 886 882 878 873 869 866 861 856 852 848 844 846 849 851 853 856 858 860 862 866 872 878 885 891 897 906 911 917 923 927 932 937 942 946 948 950 952 953 954 955 955 955 954 955 957 959 960 959 955 951 947 942 938 934 931 927 923 919 915 912 907 905 902 899 896 893 889 884 879 875 870 866 862 858 854 849 844 844 839 834 829 821 814 807 799 791 790 798 807 815 822 828 831 840 855 864 874 882 890 898 904 911 917 923 929 936 945 953 957 959 957 957 956 956 955 955 954 952 956 958 958 956 955 952 947 941 939 948 956 963 970 977 989 1003 1018 1032 1044 1052 1060 1068 1075 1080 1084 1086 1088 1088 1090 1090 1088 1081 1073 1066 1058 1050 1043 1036 1029 1028 1031 1033 1036 1037 1037 1032 1028 1023 1018 1014 1008 1003 1001 1004 1007 1010 1012 1015 1018 1021 1024 1027 1030 1030 1029 1029 1028 1028 1027 1026 1025 1023 1022 1018 1016 1013 1009 1008 1006 1004 1001 999 996 992 988 985 983 980 977 973 971 967 964 961 957 955 954 955
671 670 670 668 666 665 663 663 662 662 663 663 664 661 659 658 656 654 650 647 644 643 642 641 641 640 640 641 641 641 641 641 645 651 651 652 652 654 655 656 657 660 661 663 665 667 669 671 673 675 676 676 677 678 679 678 677 679 683 684 688 692 696 701 705 714 723 731 739 746 750 756 761 766 772 776 780 783 786 787 789 789 789 789 791 792 792 790 792 793 795 795 795 794 790 790 795 798 807 817 826 835 841 846 852 858 863 866 869 871 874 878 882 887 891 896 901 907 913 918 924 930 935 941 947 950 953 955 957 959 959 957 957 957 955 951 947 944 940 933 925 917 909 902 895 893 891 888 882 879 876 873 870 871 872 873 875 876 878 878 879 878 875 869 863 857 852 849 847 844 841 835 829 823 820 815 810 803 803 794 785 777 771 765 758 751 744 738 733 727 720 714 709 703 697 691 686 682 677 672 669 665 662 659 655 651 647 644 640 636 633 631 629 627 626 626 626 625 624 622 619 619 621 626 630 635 640 645 650 655 660 666 671 676 681 686 691 695 699 703 707 713 719 724 730 736 742 748 755 761 768 773 777 783 787 791 796 801 806 810 813 815 818 820 823 825 827 830 832 836 840 843 847 850 852 854 855 856 857 858 858 859 858 859 859 860 861 863 861 860 857 855 856 858 861 864 867 870 875 881 885 890 896 902 908 913 919 926 935 944 952 957 960 963 967 970 973 975 977 979 979 983 989 993 998 1001 1003 1004 1007 1009 1012 1018 1023 1029 1036 1041 1043 1038 1032 1026 1022 1018 1014 1010 1006 1001 996 990 984 978 972 966 961 955 947 939 934 931 926 921 915 910 906 902 899 895 892 888 884 883 880 877 880 883 887 890 894 896 899 901 899 894 892 888 885 883 879 874 870 866 863 858 853 848 844 840 842 844 847 849 851 854 856 858 861 868 874 881 888 893 900 905 910 916 921 925 930 935 939 942 944 946 948 949 949 948 948 947 948 949 951 952 951 949 946 943 939 935 931 927 924 919 916 912 908 904 901 898 896 893 890 886 882 877 872 868 864 859 856 852 847 842 842 838 833 828 820 812 804 796 789 790 799 808 818 827 833 840 852 865 874 882 890 899 907 912 919 925 930 936 941 951 959 960 958 956 956 955 955 954 953 952 950 953 957 959 960 957 953 949 944 939 944 952 959 965 973 985 999 1013 1027 1038 1047 1055 1063 1071 1076 1081 1084 1085 1085 1086 1087 1084 1077 1069 1062 1054 1046 1039 1030 1022 1020 1023 1025 1028 1031 1031 1026 1021 1017 1011 1007 1002 997 995 998 1001 1003 1006 1010 1013 1016 1018 1020 1022 1022 1022 1022 1022 1020 1020 1019 1018 1017 1014 1011 1009 1007 1004 1003 1001 999 997 995 991 988 985 981 978 976 972 970 966 963 960 957 954 952 952 952
666 665 664 662 661 661 660 661 660 660 659 659 658 655 653 652 650 647 644 642 641 640 639 638 637 637 636 637 639 639 641 643 650 658 662 663 663 664 662 659 656 658 659 661 664 665 668 670 671 672 673 673 673 674 675 674 674 675 678 680 684 689 692 696 700 707 715 723 731 738 742 748 754 760 765 770 774 778 781 782 782 783 783 783 785 783 782 780 782 784 786 787 787 787 782 783 788 796 807 817 827 836 842 848 854 859 863 866 869 871 874 877 882 886 891 895 900 906 911 917 923 929 935 940 946 950 952 954 956 958 959 959 959 959 957 954 949 946 942 935 926 919 910 907 906 902 898 896 891 889 885 880 877 878 878 880 881 883 885 886 885 882 878 872 866 858 853 849 847 841 836 829 823 820 818 816 809 799 799 790 781 774 767 761 754 748 742 736 730 724 718 712 706 700 695 690 685 681 677 672 668 665 661 657 654 650 647 643 640 635 633 631 628 626 626 626 625 625 624 621 619 618 618 623 628 633 637 642 647 653 658 666 672 677 681 686 691 695 700 703 709 716 721 727 733 740 745 752 758 764 770 775 780 784 788 793 798 803 807 811 814 816 819 821 824 827 829 831 833 837 841 845 849 852 853 855 856 857 858 858 858 858 857 857 858 859 859 859 856 854 853 851 851 853 857 860 863 865 869 875 880 886 893 899 905 910 917 923 931 939 947 952 956 960 966 969 972 975 977 979 979 983 988 991 994 997 1000 1001 1003 1005 1008 1014 1022 1028 1035 1040 1037 1029 1023 1017 1014 1011 1008 1006 1001 996 991 985 979 973 968 962 959 954 944 935 928 924 919 914 910 906 902 897 894 890 886 883 879 876 874 871 873 875 879 883 887 889 891 894 894 891 888 885 882 880 876 871 867 864 860 855 850 845 840 837 838 840 843 844 847 849 851 854 856 863 870 876 883 888 893 899 904 909 914 918 923 928 932 935 936 939 941 941 941 940 940 940 941 942 942 943 942 940 937 935 934 931 928 923 920 916 913 909 904 901 897 895 892 890 886 881 879 875 870 865 861 858 854 850 845 840 840 835 830 826 819 810 803 795 787 791 801 811 821 830 837 847 859 871 882 890 898 907 915 920 926 931 937 943 948 954 959 958 957 955 955 954 952 951 950 949 947 950 954 957 958 955 951 947 944 939 942 949 955 962 969 981 994 1007 1021 1032 1040 1049 1057 1067 1073 1077 1082 1081 1081 1083 1083 1081 1073 1066 1058 1051 1042 1035 1027 1019 1014 1016 1019 1021 1024 1024 1019 1014 1010 1005 1001 997 993 990 992 995 998 1002 1006 1009 1011 1013 1014 1015 1015 1015 1014 1014 1014 1013 1012 1011 1010 1007 1005 1003 1001 999 997 995 994 993 991 987 984 980 977 974 971 968 966 962 959 955 954 951 949 949 949
661 660 659 658 658 658 657 658 657 657 655 654 653 650 648 646 644 642 640 639 639 638 637 636 635 634 635 636 638 640 642 647 657 666 674 677 677 677 676 670 667 662 660 660 662 664 666 667 668 669 670 670 670 671 671 672 672 673 675 677 681 685 688 691 695 702 709 716 723 729 735 742 748 754 759 763 768 773 776 776 776 777 777 775 775 773 772 770 771 774 775 777 776 777 775 779 787 799 809 819 828 838 844 849 854 859 862 865 868 871 874 877 881 886 890 894 899 905 911 916 921 928 934 939 945 949 951 953 955 956 957 959 960 961 959 955 951 948 944 937 928 921 916 912 911 909 906 905 900 896 891 885 883 885 886 886 886 888 889 890 888 883 878 872 865 856 851 845 840 834 829 822 819 817 813 808 801 795 795 788 778 770 763 757 751 744 738 732 727 722 716 710 704 698 693 688 683 680 676 672 667 664 660 656 653 649 645 642 638 635 633 631 628 626 626 626 625 625 623 622 620 619 618 620 625 630 633 638 643 650 657 666 672 677 681 687 691 696 700 705 713 719 725 731 737 743 750 755 762 767 772 776 782 786 791 795 799 803 807 810 813 816 819 822 824 827 830 832 835 838 842 846 848 851 852 855 856 858 859 858 857 857 856 857 858 857 856 855 852 850 848 846 846 849 853 857 859 861 865 870 876 884 891 898 903 908 915 920 927 935 944 950 956 959 964 967 970 973 975 978 978 981 985 988 991 994 996 998 999 1001 1003 1010 1018 1025 1033 1037 1029 1020 1014 1008 1004 1001 997 993 992 989 985 980 974 969 965 961 958 952 943 934 926 922 916 911 906 901 896 892 888 884 881 878 875 871 868 864 864 868 872 876 880 882 885 886 886 887 885 881 878 876 873 869 865 861 858 853 848 843 838 834 835 836 839 840 842 844 847 849 852 859 865 871 876 881 886 891 897 902 907 911 916 921 925 927 929 931 932 932 933 932 932 932 933 933 933 934 932 931 929 929 929 927 923 920 916 913 909 904 901 897 893 891 888 885 881 874 866 866 864 863 859 856 851 847 843 837 837 833 828 824 817 809 801 793 786 792 803 814 824 833 841 851 860 873 886 896 905 914 921 927 932 939 944 950 954 957 959 958 957 956 954 951 950 948 947 946 944 947 951 953 955 953 949 945 943 940 941 947 953 958 965 975 988 1001 1014 1025 1034 1043 1052 1064 1070 1075 1079 1079 1079 1079 1079 1077 1069 1062 1054 1046 1039 1032 1025 1018 1010 1009 1012 1014 1018 1018 1012 1008 1003 999 995 992 988 986 987 988 993 997 1001 1004 1007 1006 1007 1007 1007 1006 1006 1007 1006 1005 1005 1004 1003 1001 1000 997 995 993 991 990 989 988 986 982 979 976 972 968 967 964 961 958 955 952 951 948 946 946 944
658 657 656 655 655 655 655 655 653 652 652 650 648 646 643 642 639 639 638 637 637 636 634 634 633 633 635 638 639 642 644 653 662 672 682 683 683 681 680 678 676 671 667 664 662 663 664 664 666 666 666 667 668 668 669 671 671 672 672 674 677 680 683 686 690 697 704 710 716 722 728 735 742 748 753 758 762 767 770 771 771 769 768 765 764 762 761 760 762 764 764 766 765 767 773 782 792 800 810 820 830 840 845 850 854 858 862 864 867 870 873 877 880 885 889 893 898 904 910 915 919 926 932 938 944 947 949 951 953 954 956 957 958 959 958 956 954 950 946 938 932 926 921 917 915 914 912 909 905 900 895 889 890 891 890 889 889 890 889 888 886 882 877 869 860 851 846 840 834 828 823 818 813 809 803 799 793 786 786 780 772 766 760 753 747 740 734 729 724 718 713 708 702 697 692 686 682 678 674 671 666 663 659 655 652 648 644 641 638 634 632 630 628 626 626 626 625 625 624 623 621 621 619 618 622 626 629 634 640 647 657 667 673 677 682 687 691 697 703 709 716 722 728 735 740 747 753 758 764 768 773 777 783 787 792 796 800 803 807 810 812 815 818 821 823 827 830 833 836 839 842 845 848 850 852 854 855 855 856 856 856 856 855 855 855 853 852 851 848 846 844 842 842 845 849 852 855 857 863 869 877 886 894 901 907 912 919 923 930 936 944 950 954 958 961 965 968 971 974 977 977 980 983 986 989 991 994 995 996 998 998 1004 1012 1020 1028 1029 1021 1013 1004 998 995 990 986 984 983 979 975 971 968 965 962 960 956 952 943 935 927 921 916 911 905 897 892 887 881 878 876 873 869 866 863 858 856 860 864 869 872 875 877 879 880 881 882 880 878 875 870 867 863 859 855 850 845 841 836 831 832 833 835 837 838 841 842 845 848 854 859 864 869 874 880 885 888 893 899 904 908 913 918 919 921 922 924 924 924 924 923 923 923 924 924 924 924 923 924 924 925 922 919 915 911 909 905 901 897 893 890 887 883 880 877 867 861 859 859 859 856 852 848 844 840 835 835 831 827 822 814 807 799 792 786 791 803 816 827 836 845 854 863 874 888 899 909 918 929 936 941 943 950 954 955 956 958 958 957 955 952 948 946 945 944 942 941 943 946 948 952 951 948 946 943 940 940 945 951 957 963 974 984 996 1008 1019 1029 1039 1049 1060 1067 1072 1077 1076 1077 1075 1075 1073 1065 1058 1050 1043 1036 1029 1023 1017 1010 1003 1005 1008 1011 1011 1006 1001 997 992 989 985 983 980 980 982 987 992 996 999 1000 1000 999 999 999 999 998 999 999 998 997 996 997 995 994 992 990 988 986 985 985 983 981 978 974 969 965 962 960 958 955 953 951 948 947 945 943 942 940
655 654 652 652 652 651 651 650 649 648 648 646 644 641 640 638 637 637 636 635 635 633 631 632 633 634 637 638 641 643 647 656 667 676 685 684 684 683 682 682 681 678 675 671 665 663 663 663 664 664 664 665 666 666 667 668 669 669 670 671 673 675 678 680 685 691 697 702 707 714 721 728 734 740 745 751 756 761 764 764 764 760 757 753 752 751 749 751 752 752 753 757 764 771 778 786 796 804 814 823 833 841 845 849 853 857 861 863 866 870 873 877 880 884 888 892 897 903 907 912 918 924 930 936 941 943 946 949 951 953 954 955 955 956 955 954 953 950 947 941 937 931 925 921 919 917 914 910 906 903 898 894 894 892 887 883 884 884 884 883 883 882 874 865 856 847 841 835 829 823 817 811 805 800 794 789 783 776 776 770 765 760 756 749 742 736 730 726 720 714 708 704 700 695 690 684 681 677 673 670 666 662 658 654 651 647 643 640 636 633 631 629 627 626 626 626 625 625 624 624 623 622 621 618 618 621 625 630 639 648 658 667 673 678 682 688 692 699 705 712 718 724 730 737 742 749 755 759 764 769 774 778 784 788 791 795 799 803 806 809 812 815 817 819 822 825 829 832 835 838 841 844 847 850 851 852 852 851 851 853 853 853 853 852 850 849 848 846 844 841 840 838 839 840 843 849 855 860 867 874 881 890 897 904 910 916 922 927 933 939 946 949 953 957 960 963 966 970 974 977 977 980 983 985 988 988 991 993 996 997 996 995 1005 1013 1021 1017 1010 1003 995 988 983 977 974 974 973 969 967 964 963 962 959 956 954 951 944 936 929 922 916 911 904 897 890 882 876 874 871 867 864 860 856 855 851 851 856 861 864 867 870 872 874 876 879 880 878 873 869 864 861 857 852 848 843 838 833 828 827 829 830 832 834 836 839 841 843 848 852 858 863 868 872 875 877 886 892 897 902 906 911 911 913 914 916 916 915 915 914 913 913 914 915 915 917 919 919 919 919 917 914 910 907 904 901 897 893 889 885 882 879 875 872 863 858 853 855 855 852 848 844 841 837 834 834 829 825 821 812 805 799 792 785 791 804 815 826 836 846 857 867 877 888 898 908 919 929 937 943 945 952 955 953 954 957 958 955 952 949 945 942 941 940 938 935 937 941 944 948 948 946 943 941 940 938 944 950 956 963 973 983 994 1003 1014 1025 1036 1047 1058 1064 1069 1074 1073 1073 1072 1072 1069 1062 1055 1047 1039 1033 1026 1020 1014 1007 999 999 1003 1005 1004 999 996 990 986 982 979 977 974 973 976 981 986 991 993 992 992 991 991 990 991 992 991 991 990 989 990 991 990 988 986 984 982 981 980 979 979 977 972 968 963 959 956 954 952 949 946 945 943 942 941 940 937 936
652 650 649 649 648 647 646 645 645 643 643 642 640 639 638 635 634 634 634 633 632 631 631 633 635 636 638 641 643 646 650 660 670 679 685 684 684 684 684 683 683 682 680 677 673 668 664 663 664 664 664 665 664 664 665 666 667 667 668 669 670 672 674 676 680 684 689 694 699 706 712 719 724 728 733 741 748 755 758 755 752 749 746 743 740 739 738 741 744 747 752 759 767 775 783 791 800 809 818 827 835 841 844 848 852 856 859 862 866 869 873 877 880 884 887 891 895 901 905 911 916 922 927 932 937 940 943 946 949 950 951 953 953 953 953 951 950 949 947 944 940 935 929 925 924 919 915 909 905 903 899 896 894 891 886 880 879 879 879 879 876 875 867 859 851 842 836 830 823 817 809 802 796 790 785 779 773 767 767 763 758 753 748 742 738 732 726 721 715 709 704 700 696 692 687 683 680 677 673 669 666 662 658 653 649 645 642 639 635 632 630 628 626 625 626 626 626 625 625 624 623 623 621 619 617 619 623 630 639 649 658 668 674 679 684 689 694 701 708 714 720 725 731 736 742 749 754 760 765 770 775 779 783 787 791 794 798 802 806 808 811 813 816 817 820 824 827 830 832 836 839 842 845 848 848 848 848 847 847 848 849 849 849 848 847 845 844 842 840 838 837 834 834 838 844 851 858 864 872 879 886 894 900 906 913 919 925 931 936 943 947 949 952 955 959 961 966 969 973 976 976 979 982 984 984 985 988 991 994 997 993 991 999 1008 1013 1007 1000 993 986 978 973 967 963 965 965 962 961 960 958 957 954 952 950 949 942 936 930 923 917 911 904 897 889 882 876 870 866 859 857 854 851 852 848 844 849 852 857 859 862 865 868 871 875 880 876 871 866 863 859 855 851 846 840 835 831 826 823 825 827 828 831 833 834 835 837 841 846 851 856 860 861 863 867 879 885 889 895 900 904 905 906 907 908 907 905 905 904 903 904 904 904 905 910 912 913 914 914 913 910 907 904 900 897 893 889 885 881 877 874 870 866 861 854 848 851 851 848 843 840 837 833 829 829 825 822 817 811 804 797 790 783 790 802 813 824 833 844 855 867 876 887 896 906 918 926 934 939 944 951 953 952 953 955 955 951 949 945 941 939 937 936 934 932 933 937 940 944 947 945 943 942 941 938 942 949 955 962 972 982 993 1000 1010 1022 1033 1045 1055 1062 1066 1070 1070 1069 1068 1067 1065 1057 1051 1044 1036 1030 1023 1016 1010 1003 998 995 993 995 993 990 987 983 980 976 973 972 969 968 971 975 979 984 986 985 984 984 984 984 983 984 983 983 983 984 985 985 984 982 980 977 975 974 974 974 973 971 966 961 957 953 950 947 946 943 940 939 937 937 937 936 935 932
648 647 646 645 644 643 641 640 639 638 638 638 637 636 635 633 631 631 631 630 630 631 632 635 636 638 639 643 646 649 653 663 673 684 686 685 685 685 685 685 684 683 681 680 678 675 670 667 663 663 663 664 663 663 663 664 665 665 666 667 668 670 672 675 676 678 682 686 691 697 702 708 712 716 720 728 735 744 748 743 741 738 735 732 727 728 731 737 742 751 758 765 773 781 788 796 804 813 822 828 834 840 844 847 852 855 859 863 866 869 873 877 880 883 885 889 894 899 904 909 914 918 923 928 933 936 939 941 944 946 948 949 950 951 950 949 948 947 946 942 939 935 931 928 925 920 916 911 905 900 896 893 891 887 883 878 875 875 873 871 867 863 857 851 845 837 830 823 816 808 800 794 788 782 776 771 765 760 760 755 750 745 740 736 731 726 721 716 710 705 700 696 692 688 684 681 679 675 672 669 665 661 655 650 645 643 640 637 634 631 629 628 625 625 625 626 626 625 625 625 623 623 621 619 617 618 622 630 640 649 659 669 676 681 686 691 697 703 710 715 720 725 730 736 742 748 754 759 765 770 775 778 782 786 790 793 797 800 804 806 809 811 814 816 819 822 824 827 829 832 836 839 842 843 843 844 844 844 844 844 844 844 845 844 842 841 840 839 836 835 833 830 834 839 847 855 861 868 876 883 890 898 904 909 916 922 928 934 939 945 950 951 953 955 959 961 964 968 972 976 976 978 980 980 981 981 985 988 989 990 986 986 993 1001 1005 999 992 984 976 969 964 958 954 957 958 957 956 955 953 952 950 949 948 946 939 934 928 922 916 910 903 897 889 882 876 869 863 855 852 849 849 849 845 840 841 844 849 850 854 857 862 866 869 873 873 868 864 860 856 853 849 843 838 833 828 824 820 821 823 824 827 828 829 829 831 836 840 845 849 849 849 852 858 872 879 883 888 893 897 898 899 899 899 898 897 896 896 894 894 893 892 898 903 904 906 907 908 907 904 902 900 896 892 889 885 880 877 873 870 866 862 857 851 845 845 848 844 840 837 832 829 825 825 821 818 814 809 802 795 788 783 789 800 811 822 829 840 851 863 873 884 893 904 916 925 931 937 943 950 951 949 950 951 952 948 945 942 938 936 934 932 930 928 931 934 938 942 946 947 945 943 942 938 940 947 954 961 972 980 988 996 1005 1017 1028 1040 1051 1058 1062 1067 1065 1064 1063 1062 1060 1052 1046 1040 1033 1026 1020 1013 1006 1000 996 990 983 983 982 979 975 974 973 971 969 968 966 965 967 969 973 977 979 978 978 979 978 978 977 977 976 977 977 978 979 979 978 976 973 970 968 967 967 967 966 964 959 954 950 947 944 941 939 937 934 933 933 933 934 933 932 929
645 643 643 640 639 638 636 635 634 634 635 635 634 633 631 630 629 629 628 629 630 633 634 635 637 639 642 645 648 652 656 665 676 687 686 686 686 686 685 685 684 683 681 681 680 679 676 672 666 665 664 663 663 663 663 663 663 664 665 665 666 667 670 672 673 675 678 682 685 687 691 695 700 703 707 715 724 734 736 732 728 726 723 722 721 724 732 740 747 758 765 772 779 786 794 800 807 815 821 827 834 839 843 847 850 853 857 862 865 869 873 876 879 881 883 887 892 897 902 906 911 915 919 924 929 932 934 936 939 941 943 944 946 947 948 948 947 946 944 941 937 934 931 929 926 922 918 913 906 898 892 888 886 882 878 875 871 869 864 860 856 852 846 840 833 828 822 814 807 799 792 786 780 774 769 764 758 753 753 748 743 737 732 729 724 720 715 710 706 700 695 691 688 685 681 679 676 673 670 668 663 658 652 647 643 639 637 634 632 630 628 627 624 624 624 625 626 626 625 625 623 622 621 619 616 616 622 630 640 650 660 669 676 682 688 693 699 706 711 716 721 726 730 736 741 747 753 758 764 770 775 778 781 785 788 792 796 798 801 804 806 809 811 814 816 819 821 824 826 829 832 834 837 839 839 839 839 840 840 840 840 840 841 840 838 837 836 835 833 831 829 829 836 844 851 858 865 872 880 887 896 904 909 915 921 926 931 936 942 947 951 953 955 957 959 960 962 967 971 975 975 976 977 976 977 977 980 981 979 978 975 978 984 990 995 990 982 974 966 959 954 950 946 948 949 949 949 949 948 947 946 946 946 944 937 931 926 921 915 908 902 896 889 883 876 870 864 857 851 847 846 845 841 835 833 836 839 843 848 852 856 861 864 867 870 867 862 858 854 850 847 841 836 831 826 821 817 817 819 820 822 822 822 823 825 830 833 838 840 841 839 844 854 867 873 877 881 886 890 891 891 892 892 891 890 888 887 885 883 880 882 891 896 897 898 899 900 898 897 895 894 892 888 884 880 876 873 869 866 862 858 853 847 841 838 838 836 834 832 828 825 821 821 818 814 811 805 799 793 786 784 790 800 810 819 827 836 848 857 868 878 889 904 914 924 929 936 942 949 948 946 947 948 949 945 941 938 935 932 930 927 925 923 928 933 937 941 945 948 947 944 941 937 937 944 951 959 967 976 983 992 1001 1013 1024 1035 1047 1054 1059 1063 1061 1060 1059 1059 1055 1048 1041 1035 1028 1022 1016 1010 1003 997 992 984 978 975 974 972 970 969 967 966 964 962 961 960 960 963 967 970 972 972 972 973 972 972 971 971 971 971 971 972 973 973 972 969 966 964 961 960 960 959 958 956 952 947 944 941 939 936 933 931 929 929 930 930 930 930 928 926
